ply
format ascii 1.0
element vertex 706
property float x
property float y
property float z
property uchar red
property uchar green
property uchar blue
property float nx
property float ny
property float nz
end_header
-0.010201 0.072210 0.591812 181 150 126 -0.010201 0.072210 0.591812
-0.008951 0.072195 0.591687 181 150 126 -0.008951 0.072195 0.591687
-0.007700 0.072164 0.591437 181 150 126 -0.007700 0.072164 0.591437
-0.006453 0.072165 0.591437 180 149 124 -0.006453 0.072165 0.591437
-0.005205 0.072150 0.591312 177 146 122 -0.005205 0.072150 0.591312
-0.003957 0.072135 0.591187 176 145 121 -0.003957 0.072135 0.591187
-0.002710 0.072136 0.591187 175 144 120 -0.002710 0.072136 0.591187
-0.001464 0.072137 0.591187 175 144 120 -0.001464 0.072137 0.591187
-0.000217 0.072153 0.591312 175 144 120 -0.000217 0.072153 0.591312
0.001030 0.072154 0.591312 174 143 119 0.001030 0.072154 0.591312
0.002278 0.072171 0.591437 174 143 119 0.002278 0.072171 0.591437
0.003525 0.072172 0.591437 173 142 117 0.003525 0.072172 0.591437
0.004773 0.072174 0.591437 174 143 119 0.004773 0.072174 0.591437
0.006020 0.072176 0.591437 176 141 119 0.006020 0.072176 0.591437
0.007268 0.072177 0.591437 174 140 117 0.007268 0.072177 0.591437
0.008518 0.072194 0.591562 174 140 117 0.008518 0.072194 0.591562
0.009768 0.072212 0.591687 171 136 114 0.009768 0.072212 0.591687
0.011019 0.072229 0.591812 173 139 116 0.011019 0.072229 0.591812
0.012268 0.072231 0.591812 172 138 115 0.012268 0.072231 0.591812
0.013517 0.072234 0.591812 172 138 115 0.013517 0.072234 0.591812
0.014766 0.072236 0.591812 172 140 116 0.014766 0.072236 0.591812
0.022254 0.072224 0.591562 168 137 113 0.022254 0.072224 0.591562
0.023468 0.072120 0.590687 167 136 112 0.023468 0.072120 0.590687
0.024711 0.072108 0.590562 166 135 110 0.024711 0.072108 0.590562
0.025959 0.072112 0.590562 166 135 110 0.025959 0.072112 0.590562
0.027206 0.072116 0.590562 166 135 110 0.027206 0.072116 0.590562
0.028454 0.072120 0.590562 165 133 109 0.028454 0.072120 0.590562
0.029696 0.072108 0.590437 165 133 109 0.029696 0.072108 0.590437
0.030944 0.072112 0.590437 164 132 108 0.030944 0.072112 0.590437
0.032193 0.072117 0.590437 164 132 108 0.032193 0.072117 0.590437
0.215223 0.101584 0.820162 238 230 225 0.215223 0.101584 0.820162
0.217017 0.101608 0.820162 214 198 189 0.217017 0.101608 0.820162
0.218345 0.101414 0.818413 180 163 154 0.218345 0.101414 0.818413
0.220171 0.101454 0.818538 202 215 193 0.220171 0.101454 0.818538
0.221998 0.101493 0.818663 249 255 222 0.221998 0.101493 0.818663
-0.395858 0.107437 0.831536 221 167 136 -0.395858 0.107437 0.831536
-0.393983 0.107410 0.831661 231 174 148 -0.393983 0.107410 0.831661
-0.392110 0.107382 0.831786 228 171 157 -0.392110 0.107382 0.831786
-0.390180 0.107339 0.831786 231 175 161 -0.390180 0.107339 0.831786
-0.388310 0.107312 0.831911 255 231 232 -0.388310 0.107312 0.831911
-0.386500 0.107301 0.832161 255 255 247 -0.386500 0.107301 0.832161
-0.384632 0.107275 0.832286 255 255 247 -0.384632 0.107275 0.832286
-0.382767 0.107249 0.832411 255 255 251 -0.382767 0.107249 0.832411
-0.380846 0.107207 0.832411 255 255 253 -0.380846 0.107207 0.832411
-0.367751 0.106496 0.828786 255 255 253 -0.367751 0.106496 0.828786
-0.365907 0.106472 0.828911 255 251 243 -0.365907 0.106472 0.828911
-0.364064 0.106449 0.829036 221 201 197 -0.364064 0.106449 0.829036
-0.362223 0.106426 0.829161 255 244 241 -0.362223 0.106426 0.829161
-0.360328 0.106387 0.829161 255 255 247 -0.360328 0.106387 0.829161
-0.358490 0.106364 0.829286 255 255 251 -0.358490 0.106364 0.829286
-0.356706 0.106358 0.829536 255 255 251 -0.356706 0.106358 0.829536
-0.354870 0.106336 0.829661 255 255 253 -0.354870 0.106336 0.829661
-0.353088 0.106330 0.829911 255 255 253 -0.353088 0.106330 0.829911
-0.351306 0.106325 0.830161 255 255 253 -0.351306 0.106325 0.830161
-0.349525 0.106319 0.830411 255 255 253 -0.349525 0.106319 0.830411
-0.347693 0.106298 0.830536 255 255 253 -0.347693 0.106298 0.830536
-0.345861 0.106277 0.830661 255 255 253 -0.345861 0.106277 0.830661
-0.344031 0.106257 0.830786 255 255 253 -0.344031 0.106257 0.830786
-0.342304 0.106269 0.831161 255 255 253 -0.342304 0.106269 0.831161
-0.340527 0.106265 0.831411 255 255 253 -0.340527 0.106265 0.831411
-0.338648 0.106229 0.831411 255 255 253 -0.338648 0.106229 0.831411
-0.336670 0.106161 0.831161 255 255 253 -0.336670 0.106161 0.831161
-0.324171 0.105539 0.827912 223 212 208 -0.324171 0.105539 0.827912
-0.322410 0.105538 0.828162 245 237 232 -0.322410 0.105538 0.828162
-0.320649 0.105536 0.828412 255 255 249 -0.320649 0.105536 0.828412
-0.318937 0.105551 0.828786 255 255 249 -0.318937 0.105551 0.828786
-0.317225 0.105566 0.829161 255 255 251 -0.317225 0.105566 0.829161
-0.315560 0.105597 0.829661 255 255 253 -0.315560 0.105597 0.829661
-0.313846 0.105612 0.830036 255 255 253 -0.313846 0.105612 0.830036
-0.312133 0.105627 0.830411 255 255 253 -0.312133 0.105627 0.830411
-0.310466 0.105659 0.830911 255 255 253 -0.310466 0.105659 0.830911
-0.308752 0.105675 0.831286 255 255 253 -0.308752 0.105675 0.831286
-0.307038 0.105691 0.831661 255 255 253 -0.307038 0.105691 0.831661
-0.305369 0.105723 0.832161 255 255 253 -0.305369 0.105723 0.832161
-0.296122 0.105570 0.832161 255 255 253 -0.296122 0.105570 0.832161
-0.294365 0.105571 0.832411 255 255 249 -0.294365 0.105571 0.832411
-0.292608 0.105573 0.832661 255 255 249 -0.292608 0.105573 0.832661
-0.290721 0.105528 0.832536 255 255 251 -0.290721 0.105528 0.832536
-0.288878 0.105499 0.832536 255 255 251 -0.288878 0.105499 0.832536
-0.287080 0.105485 0.832661 255 255 251 -0.287080 0.105485 0.832661
-0.285326 0.105488 0.832911 255 255 251 -0.285326 0.105488 0.832911
-0.283572 0.105491 0.833161 255 255 251 -0.283572 0.105491 0.833161
-0.281902 0.105526 0.833661 255 255 251 -0.281902 0.105526 0.833661
-0.280147 0.105530 0.833911 255 255 251 -0.280147 0.105530 0.833911
-0.278393 0.105533 0.834161 255 255 251 -0.278393 0.105533 0.834161
-0.258317 0.104556 0.828537 255 255 249 -0.258317 0.104556 0.828537
-0.255884 0.104278 0.826537 255 255 249 -0.255884 0.104278 0.826537
-0.253346 0.103953 0.824162 255 255 251 -0.253346 0.103953 0.824162
-0.250933 0.103676 0.822162 255 255 253 -0.250933 0.103676 0.822162
-0.248758 0.103494 0.820912 255 255 253 -0.248758 0.103494 0.820912
-0.246702 0.103359 0.820037 255 255 253 -0.246702 0.103359 0.820037
-0.244725 0.103256 0.819412 255 255 253 -0.244725 0.103256 0.819412
-0.242864 0.103201 0.819162 255 255 253 -0.242864 0.103201 0.819162
-0.241004 0.103146 0.818913 255 255 253 -0.241004 0.103146 0.818913
-0.239146 0.103091 0.818663 255 255 253 -0.239146 0.103091 0.818663
-0.237327 0.103052 0.818538 255 255 253 -0.237327 0.103052 0.818538
-0.235545 0.103029 0.818538 255 255 253 -0.235545 0.103029 0.818538
-0.233800 0.103022 0.818663 255 255 253 -0.233800 0.103022 0.818663
-0.232055 0.103015 0.818788 255 255 253 -0.232055 0.103015 0.818788
-0.230381 0.103039 0.819162 255 255 253 -0.230381 0.103039 0.819162
-0.228706 0.103064 0.819537 255 255 253 -0.228706 0.103064 0.819537
-0.227065 0.103105 0.820037 255 255 253 -0.227065 0.103105 0.820037
-0.058691 0.074874 0.602436 198 170 144 -0.058691 0.074874 0.602436
-0.057346 0.074777 0.601686 195 166 141 -0.057346 0.074777 0.601686
-0.056017 0.074694 0.601061 197 169 143 -0.056017 0.074694 0.601061
-0.054667 0.074581 0.600186 197 168 145 -0.054667 0.074581 0.600186
-0.046003 0.074895 0.602936 191 163 139 -0.046003 0.074895 0.602936
-0.044313 0.074193 0.597311 191 163 139 -0.044313 0.074193 0.597311
-0.042800 0.073755 0.593812 190 161 138 -0.042800 0.073755 0.593812
-0.041477 0.073628 0.592812 189 160 137 -0.041477 0.073628 0.592812
-0.040226 0.073625 0.592812 188 159 138 -0.040226 0.073625 0.592812
-0.038983 0.073637 0.592937 188 159 136 -0.038983 0.073637 0.592937
-0.037764 0.073697 0.593437 186 158 135 -0.037764 0.073697 0.593437
-0.036542 0.073756 0.593937 186 158 135 -0.036542 0.073756 0.593937
-0.033142 0.074556 0.600436 185 157 131 -0.033142 0.074556 0.600436
-0.031623 0.073964 0.595686 185 157 131 -0.031623 0.073964 0.595686
-0.030226 0.073621 0.592937 188 159 134 -0.030226 0.073621 0.592937
-0.028963 0.073588 0.592687 186 158 133 -0.028963 0.073588 0.592687
-0.027696 0.073540 0.592312 185 157 133 -0.027696 0.073540 0.592312
-0.026435 0.073507 0.592062 185 157 133 -0.026435 0.073507 0.592062
-0.025181 0.073490 0.591937 186 158 135 -0.025181 0.073490 0.591937
-0.023933 0.073489 0.591937 185 157 133 -0.023933 0.073489 0.591937
-0.022690 0.073503 0.592062 186 158 135 -0.022690 0.073503 0.592062
-0.021441 0.073502 0.592062 186 158 135 -0.021441 0.073502 0.592062
-0.020193 0.073501 0.592062 185 157 133 -0.020193 0.073501 0.592062
-0.018944 0.073500 0.592062 183 154 131 -0.018944 0.073500 0.592062
-0.017696 0.073499 0.592062 184 153 131 -0.017696 0.073499 0.592062
-0.016451 0.073514 0.592187 182 150 129 -0.016451 0.073514 0.592187
-0.015202 0.073514 0.592187 181 149 128 -0.015202 0.073514 0.592187
-0.013953 0.073514 0.592187 181 149 128 -0.013953 0.073514 0.592187
-0.012704 0.073513 0.592187 179 147 125 -0.012704 0.073513 0.592187
-0.011451 0.073482 0.591937 181 147 126 -0.011451 0.073482 0.591937
-0.010203 0.073482 0.591937 180 145 125 -0.010203 0.073482 0.591937
-0.008951 0.073451 0.591687 180 145 125 -0.008951 0.073451 0.591687
-0.007701 0.073436 0.591562 179 147 125 -0.007701 0.073436 0.591562
-0.006453 0.073421 0.591437 179 147 123 -0.006453 0.073421 0.591437
-0.005205 0.073422 0.591437 175 144 120 -0.005205 0.073422 0.591437
-0.003957 0.073407 0.591312 174 143 119 -0.003957 0.073407 0.591312
-0.002710 0.073392 0.591187 174 143 119 -0.002710 0.073392 0.591187
-0.001463 0.073408 0.591312 174 143 119 -0.001463 0.073408 0.591312
-0.000216 0.073409 0.591312 173 141 119 -0.000216 0.073409 0.591312
0.001032 0.073426 0.591437 173 141 119 0.001032 0.073426 0.591437
0.002279 0.073427 0.591437 173 141 119 0.002279 0.073427 0.591437
0.003527 0.073429 0.591437 175 143 122 0.003527 0.073429 0.591437
0.004774 0.073430 0.591437 176 145 123 0.004774 0.073430 0.591437
0.006023 0.073448 0.591562 176 145 123 0.006023 0.073448 0.591562
0.007272 0.073449 0.591562 174 142 121 0.007272 0.073449 0.591562
0.008522 0.073467 0.591687 173 141 119 0.008522 0.073467 0.591687
0.009772 0.073484 0.591812 172 140 116 0.009772 0.073484 0.591812
0.011023 0.073502 0.591937 173 142 117 0.011023 0.073502 0.591937
0.012273 0.073504 0.591937 173 142 117 0.012273 0.073504 0.591937
0.013522 0.073507 0.591937 174 143 119 0.013522 0.073507 0.591937
0.021047 0.073617 0.592687 168 137 113 0.021047 0.073617 0.592687
0.022257 0.073481 0.591562 168 137 113 0.022257 0.073481 0.591562
0.023462 0.073344 0.590437 168 137 113 0.023462 0.073344 0.590437
0.024704 0.073332 0.590312 166 135 110 0.024704 0.073332 0.590312
0.025946 0.073321 0.590187 167 136 112 0.025946 0.073321 0.590187
0.027193 0.073324 0.590187 167 136 112 0.027193 0.073324 0.590187
0.028440 0.073328 0.590187 166 135 110 0.028440 0.073328 0.590187
0.029688 0.073332 0.590187 166 135 110 0.029688 0.073332 0.590187
0.030936 0.073337 0.590187 165 133 109 0.030936 0.073337 0.590187
0.032177 0.073325 0.590062 165 133 109 0.032177 0.073325 0.590062
0.215214 0.103332 0.820037 245 235 225 0.215214 0.103332 0.820037
0.216942 0.103324 0.819787 188 172 162 0.216942 0.103324 0.819787
0.218302 0.103143 0.818163 176 160 150 0.218302 0.103143 0.818163
0.220161 0.103199 0.818413 223 238 215 0.220161 0.103199 0.818413
0.221853 0.103176 0.818038 244 255 223 0.221853 0.103176 0.818038
-0.395843 0.109245 0.831411 229 166 136 -0.395843 0.109245 0.831411
-0.394086 0.109250 0.831786 231 168 140 -0.394086 0.109250 0.831786
-0.392212 0.109222 0.831911 226 165 145 -0.392212 0.109222 0.831911
-0.390282 0.109178 0.831911 234 173 153 -0.390282 0.109178 0.831911
-0.388411 0.109150 0.832036 255 207 203 -0.388411 0.109150 0.832036
-0.386484 0.109107 0.832036 255 247 242 -0.386484 0.109107 0.832036
-0.384617 0.109080 0.832161 255 248 243 -0.384617 0.109080 0.832161
-0.382694 0.109038 0.832161 255 255 249 -0.382694 0.109038 0.832161
-0.380830 0.109011 0.832286 255 255 251 -0.380830 0.109011 0.832286
-0.367902 0.108338 0.829036 255 255 253 -0.367902 0.108338 0.829036
-0.366057 0.108314 0.829161 255 255 253 -0.366057 0.108314 0.829161
-0.364159 0.108274 0.829161 253 244 242 -0.364159 0.108274 0.829161
-0.362371 0.108267 0.829411 218 209 207 -0.362371 0.108267 0.829411
-0.360476 0.108228 0.829411 237 219 221 -0.360476 0.108228 0.829411
-0.358583 0.108189 0.829411 255 255 251 -0.358583 0.108189 0.829411
-0.356798 0.108182 0.829661 255 255 251 -0.356798 0.108182 0.829661
-0.354908 0.108144 0.829661 255 255 253 -0.354908 0.108144 0.829661
-0.353125 0.108138 0.829911 255 255 253 -0.353125 0.108138 0.829911
-0.351397 0.108149 0.830286 255 255 253 -0.351397 0.108149 0.830286
-0.349563 0.108127 0.830411 255 255 253 -0.349563 0.108127 0.830411
-0.347782 0.108122 0.830661 255 255 253 -0.347782 0.108122 0.830661
-0.345898 0.108085 0.830661 255 255 253 -0.345898 0.108085 0.830661
-0.344119 0.108080 0.830911 255 255 253 -0.344119 0.108080 0.830911
-0.342341 0.108076 0.831161 255 255 253 -0.342341 0.108076 0.831161
-0.340614 0.108088 0.831536 255 255 253 -0.340614 0.108088 0.831536
-0.338735 0.108052 0.831536 255 255 253 -0.338735 0.108052 0.831536
-0.336807 0.108000 0.831411 255 255 253 -0.336807 0.108000 0.831411
-0.334780 0.107915 0.831036 255 255 253 -0.334780 0.107915 0.831036
-0.324107 0.107303 0.827662 211 188 184 -0.324107 0.107303 0.827662
-0.322346 0.107301 0.827912 202 182 179 -0.322346 0.107301 0.827912
-0.320586 0.107300 0.828162 255 254 245 -0.320586 0.107300 0.828162
-0.318874 0.107315 0.828537 255 254 245 -0.318874 0.107315 0.828537
-0.317162 0.107330 0.828911 255 255 251 -0.317162 0.107330 0.828911
-0.315497 0.107362 0.829411 255 255 253 -0.315497 0.107362 0.829411
-0.313737 0.107361 0.829661 255 255 253 -0.313737 0.107361 0.829661
-0.312071 0.107393 0.830161 255 255 253 -0.312071 0.107393 0.830161
-0.310358 0.107409 0.830536 255 255 253 -0.310358 0.107409 0.830536
-0.308645 0.107425 0.830911 255 255 253 -0.308645 0.107425 0.830911
-0.306977 0.107458 0.831411 255 255 253 -0.306977 0.107458 0.831411
-0.305308 0.107491 0.831911 255 255 253 -0.305308 0.107491 0.831911
-0.303594 0.107508 0.832286 255 255 253 -0.303594 0.107508 0.832286
-0.297999 0.107398 0.832161 255 255 253 -0.297999 0.107398 0.832161
-0.296152 0.107368 0.832161 253 251 245 -0.296152 0.107368 0.832161
-0.294351 0.107354 0.832286 224 207 204 -0.294351 0.107354 0.832286
-0.292550 0.107340 0.832411 242 225 223 -0.292550 0.107340 0.832411
-0.290794 0.107342 0.832661 255 254 245 -0.290794 0.107342 0.832661
-0.288951 0.107312 0.832661 255 255 251 -0.288951 0.107312 0.832661
-0.287110 0.107283 0.832661 255 255 251 -0.287110 0.107283 0.832661
-0.285312 0.107270 0.832786 255 255 251 -0.285312 0.107270 0.832786
-0.283600 0.107289 0.833161 255 255 253 -0.283600 0.107289 0.833161
-0.281888 0.107308 0.833536 255 255 253 -0.281888 0.107308 0.833536
-0.280175 0.107328 0.833911 255 255 253 -0.280175 0.107328 0.833911
-0.278379 0.107316 0.834036 255 255 253 -0.278379 0.107316 0.834036
-0.276583 0.107304 0.834161 255 255 253 -0.276583 0.107304 0.834161
-0.274829 0.107308 0.834411 255 255 253 -0.274829 0.107308 0.834411
-0.272952 0.107264 0.834286 255 255 253 -0.272952 0.107264 0.834286
-0.271077 0.107220 0.834161 255 255 253 -0.271077 0.107220 0.834161
-0.269164 0.107161 0.833911 255 255 253 -0.269164 0.107161 0.833911
-0.267172 0.107070 0.833411 255 255 253 -0.267172 0.107070 0.833411
-0.260590 0.106541 0.829911 255 255 251 -0.260590 0.106541 0.829911
-0.258421 0.106370 0.828786 255 255 251 -0.258421 0.106370 0.828786
-0.256026 0.106104 0.826912 255 255 251 -0.256026 0.106104 0.826912
-0.253448 0.105758 0.824412 255 255 251 -0.253448 0.105758 0.824412
-0.251035 0.105476 0.822412 255 255 251 -0.251035 0.105476 0.822412
-0.248783 0.105259 0.820912 255 255 251 -0.248783 0.105259 0.820912
-0.246689 0.105106 0.819912 255 255 251 -0.246689 0.105106 0.819912
-0.244749 0.105017 0.819412 255 255 251 -0.244749 0.105017 0.819412
-0.242813 0.104929 0.818913 255 255 251 -0.242813 0.104929 0.818913
-0.240954 0.104873 0.818663 255 255 251 -0.240954 0.104873 0.818663
-0.239133 0.104833 0.818538 255 255 251 -0.239133 0.104833 0.818538
-0.237314 0.104794 0.818413 255 255 251 -0.237314 0.104794 0.818413
-0.235496 0.104754 0.818288 255 255 251 -0.235496 0.104754 0.818288
-0.233716 0.104731 0.818288 255 255 251 -0.233716 0.104731 0.818288
-0.231972 0.104724 0.818413 255 255 251 -0.231972 0.104724 0.818413
-0.230298 0.104749 0.818788 255 255 251 -0.230298 0.104749 0.818788
-0.228624 0.104775 0.819162 255 255 251 -0.228624 0.104775 0.819162
-0.226983 0.104816 0.819662 255 255 251 -0.226983 0.104816 0.819662
-0.225342 0.104858 0.820162 255 255 251 -0.225342 0.104858 0.820162
-0.196797 0.104434 0.819412 255 255 251 -0.196797 0.104434 0.819412
-0.194973 0.104383 0.819162 255 255 251 -0.194973 0.104383 0.819162
-0.193150 0.104333 0.818913 255 255 253 -0.193150 0.104333 0.818913
-0.191359 0.104298 0.818788 255 255 253 -0.191359 0.104298 0.818788
-0.189570 0.104264 0.818663 255 255 253 -0.189570 0.104264 0.818663
-0.187810 0.104246 0.818663 255 255 253 -0.187810 0.104246 0.818663
-0.186050 0.104228 0.818663 255 255 253 -0.186050 0.104228 0.818663
-0.057268 0.075945 0.600811 194 162 140 -0.057268 0.075945 0.600811
-0.055951 0.075877 0.600311 197 166 144 -0.055951 0.075877 0.600311
-0.042794 0.075001 0.593687 193 164 144 -0.042794 0.075001 0.593687
-0.041471 0.074872 0.592687 192 163 142 -0.041471 0.074872 0.592687
-0.040237 0.074901 0.592937 191 162 141 -0.040237 0.074901 0.592937
-0.039002 0.074929 0.593187 191 162 141 -0.039002 0.074929 0.593187
-0.037782 0.074990 0.593687 190 161 140 -0.037782 0.074990 0.593687
-0.032882 0.075232 0.595686 186 157 137 -0.032882 0.075232 0.595686
-0.031545 0.075041 0.594187 189 160 137 -0.031545 0.075041 0.594187
-0.030235 0.074897 0.593062 189 160 137 -0.030235 0.074897 0.593062
-0.028965 0.074847 0.592687 191 163 139 -0.028965 0.074847 0.592687
-0.027715 0.074846 0.592687 191 162 141 -0.027715 0.074846 0.592687
-0.026454 0.074812 0.592437 190 161 140 -0.026454 0.074812 0.592437
-0.025204 0.074811 0.592437 189 160 139 -0.025204 0.074811 0.592437
-0.023950 0.074794 0.592312 188 159 138 -0.023950 0.074794 0.592312
-0.015241 0.074961 0.593687 181 152 131 -0.015241 0.074961 0.593687
-0.013980 0.074914 0.593312 182 150 131 -0.013980 0.074914 0.593312
-0.012710 0.074803 0.592437 181 149 130 -0.012710 0.074803 0.592437
-0.011458 0.074787 0.592312 181 149 130 -0.011458 0.074787 0.592312
-0.010205 0.074756 0.592062 182 150 131 -0.010205 0.074756 0.592062
-0.008954 0.074740 0.591937 180 148 128 -0.008954 0.074740 0.591937
-0.007703 0.074709 0.591687 181 149 128 -0.007703 0.074709 0.591687
-0.006453 0.074693 0.591562 180 149 124 -0.006453 0.074693 0.591562
-0.005205 0.074678 0.591437 179 147 123 -0.005205 0.074678 0.591437
-0.003957 0.074679 0.591437 179 147 123 -0.003957 0.074679 0.591437
-0.002710 0.074680 0.591437 177 146 124 -0.002710 0.074680 0.591437
-0.001462 0.074681 0.591437 177 146 124 -0.001462 0.074681 0.591437
-0.000215 0.074682 0.591437 175 143 122 -0.000215 0.074682 0.591437
0.001033 0.074683 0.591437 174 142 121 0.001033 0.074683 0.591437
0.002281 0.074700 0.591562 175 143 122 0.002281 0.074700 0.591562
0.003530 0.074717 0.591687 175 143 122 0.003530 0.074717 0.591687
0.004778 0.074719 0.591687 176 145 123 0.004778 0.074719 0.591687
0.006026 0.074720 0.591687 175 143 122 0.006026 0.074720 0.591687
0.007275 0.074722 0.591687 173 141 119 0.007275 0.074722 0.591687
0.008525 0.074740 0.591812 173 141 119 0.008525 0.074740 0.591812
0.009776 0.074758 0.591937 172 140 118 0.009776 0.074758 0.591937
0.011028 0.074776 0.592062 172 140 118 0.011028 0.074776 0.592062
0.012280 0.074794 0.592187 174 142 121 0.012280 0.074794 0.592187
0.019949 0.075442 0.597186 172 140 118 0.019949 0.075442 0.597186
0.021064 0.074924 0.593062 171 139 117 0.021064 0.074924 0.593062
0.022256 0.074723 0.591437 171 139 117 0.022256 0.074723 0.591437
0.023465 0.074600 0.590437 168 136 115 0.023465 0.074600 0.590437
0.024708 0.074587 0.590312 168 136 115 0.024708 0.074587 0.590312
0.025950 0.074575 0.590187 167 135 114 0.025950 0.074575 0.590187
0.027197 0.074579 0.590187 166 134 112 0.027197 0.074579 0.590187
0.028444 0.074583 0.590187 166 134 112 0.028444 0.074583 0.590187
0.029692 0.074587 0.590187 166 134 112 0.029692 0.074587 0.590187
0.030940 0.074592 0.590187 166 134 112 0.030940 0.074592 0.590187
0.216602 0.104911 0.818413 186 166 161 0.216602 0.104911 0.818413
0.218260 0.104872 0.817913 173 153 148 0.218260 0.104872 0.817913
0.219782 0.104768 0.816913 230 245 222 0.219782 0.104768 0.816913
0.221504 0.104760 0.816663 248 255 227 0.221504 0.104760 0.816663
-0.394190 0.111091 0.831911 238 167 136 -0.394190 0.111091 0.831911
-0.392375 0.111079 0.832161 233 164 139 -0.392375 0.111079 0.832161
-0.390443 0.111035 0.832161 236 173 145 -0.390443 0.111035 0.832161
-0.388513 0.110990 0.832161 235 176 159 -0.388513 0.110990 0.832161
-0.386586 0.110946 0.832161 249 202 203 -0.386586 0.110946 0.832161
-0.384603 0.110886 0.832036 255 227 229 -0.384603 0.110886 0.832036
-0.382737 0.110859 0.832161 255 253 249 -0.382737 0.110859 0.832161
-0.380816 0.110816 0.832161 255 255 251 -0.380816 0.110816 0.832161
-0.378783 0.110740 0.831911 255 255 253 -0.378783 0.110740 0.831911
-0.366208 0.110158 0.829411 255 255 253 -0.366208 0.110158 0.829411
-0.364309 0.110117 0.829411 255 254 251 -0.364309 0.110117 0.829411
-0.362466 0.110094 0.829536 250 247 244 -0.362466 0.110094 0.829536
-0.360624 0.110070 0.829661 227 209 212 -0.360624 0.110070 0.829661
-0.358730 0.110031 0.829661 255 250 250 -0.358730 0.110031 0.829661
-0.356837 0.109991 0.829661 255 251 251 -0.356837 0.109991 0.829661
-0.354947 0.109952 0.829661 255 255 251 -0.354947 0.109952 0.829661
-0.353164 0.109946 0.829911 255 255 253 -0.353164 0.109946 0.829911
-0.351382 0.109941 0.830161 255 255 253 -0.351382 0.109941 0.830161
-0.349600 0.109935 0.830411 255 255 253 -0.349600 0.109935 0.830411
-0.347767 0.109914 0.830536 255 255 253 -0.347767 0.109914 0.830536
-0.345935 0.109893 0.830661 255 255 253 -0.345935 0.109893 0.830661
-0.344156 0.109888 0.830911 255 255 253 -0.344156 0.109888 0.830911
-0.342429 0.109900 0.831286 255 255 253 -0.342429 0.109900 0.831286
-0.340651 0.109896 0.831536 255 255 253 -0.340651 0.109896 0.831536
-0.338771 0.109860 0.831536 255 255 253 -0.338771 0.109860 0.831536
-0.336893 0.109823 0.831536 255 255 253 -0.336893 0.109823 0.831536
-0.334866 0.109737 0.831161 255 255 253 -0.334866 0.109737 0.831161
-0.324092 0.109082 0.827537 203 176 163 -0.324092 0.109082 0.827537
-0.322332 0.109081 0.827787 202 177 165 -0.322332 0.109081 0.827787
-0.320523 0.109063 0.827912 203 180 176 -0.320523 0.109063 0.827912
-0.318812 0.109078 0.828287 254 231 227 -0.318812 0.109078 0.828287
-0.317148 0.109110 0.828786 255 255 247 -0.317148 0.109110 0.828786
-0.315435 0.109126 0.829161 255 255 251 -0.315435 0.109126 0.829161
-0.313723 0.109142 0.829536 255 255 251 -0.313723 0.109142 0.829536
-0.312010 0.109158 0.829911 255 255 253 -0.312010 0.109158 0.829911
-0.310297 0.109175 0.830286 255 255 253 -0.310297 0.109175 0.830286
-0.308630 0.109208 0.830786 255 255 253 -0.308630 0.109208 0.830786
-0.306963 0.109241 0.831286 255 255 253 -0.306963 0.109241 0.831286
-0.305294 0.109275 0.831786 255 255 253 -0.305294 0.109275 0.831786
-0.303580 0.109292 0.832161 255 255 253 -0.303580 0.109292 0.832161
-0.298030 0.109197 0.832161 255 255 253 -0.298030 0.109197 0.832161
-0.296183 0.109166 0.832161 206 189 185 -0.296183 0.109166 0.832161
-0.294381 0.109152 0.832286 212 187 182 -0.294381 0.109152 0.832286
-0.292537 0.109121 0.832286 205 180 175 -0.292537 0.109121 0.832286
-0.290737 0.109108 0.832411 255 246 243 -0.290737 0.109108 0.832411
-0.288894 0.109077 0.832411 255 255 247 -0.288894 0.109077 0.832411
-0.287096 0.109064 0.832536 255 255 247 -0.287096 0.109064 0.832536
-0.285341 0.109067 0.832786 255 255 251 -0.285341 0.109067 0.832786
-0.283587 0.109070 0.833036 255 255 253 -0.283587 0.109070 0.833036
-0.281875 0.109090 0.833411 255 255 253 -0.281875 0.109090 0.833411
-0.280120 0.109094 0.833661 255 255 253 -0.280120 0.109094 0.833661
-0.278366 0.109098 0.833911 255 255 253 -0.278366 0.109098 0.833911
-0.276611 0.109102 0.834161 255 255 253 -0.276611 0.109102 0.834161
-0.274775 0.109074 0.834161 255 255 253 -0.274775 0.109074 0.834161
-0.272939 0.109046 0.834161 255 255 253 -0.272939 0.109046 0.834161
-0.271105 0.109018 0.834161 255 255 253 -0.271105 0.109018 0.834161
-0.269151 0.108941 0.833786 255 255 253 -0.269151 0.108941 0.833786
-0.267159 0.108849 0.833286 255 255 253 -0.267159 0.108849 0.833286
-0.265131 0.108740 0.832661 248 233 232 -0.265131 0.108740 0.832661
-0.262910 0.108550 0.831411 215 201 199 -0.262910 0.108550 0.831411
-0.260734 0.108376 0.830286 238 227 224 -0.260734 0.108376 0.830286
-0.258486 0.108170 0.828911 255 255 251 -0.258486 0.108170 0.828911
-0.256129 0.107916 0.827162 255 255 251 -0.256129 0.107916 0.827162
-0.253589 0.107580 0.824787 255 255 253 -0.253589 0.107580 0.824787
-0.251136 0.107278 0.822662 255 255 253 -0.251136 0.107278 0.822662
-0.248846 0.107041 0.821037 255 255 253 -0.248846 0.107041 0.821037
-0.246713 0.106869 0.819912 255 255 253 -0.246713 0.106869 0.819912
-0.244737 0.106763 0.819287 255 255 253 -0.244737 0.106763 0.819287
-0.242838 0.106689 0.818913 255 255 253 -0.242838 0.106689 0.818913
-0.240941 0.106616 0.818538 255 255 253 -0.240941 0.106616 0.818538
-0.239121 0.106576 0.818413 255 255 253 -0.239121 0.106576 0.818413
-0.237265 0.106519 0.818163 255 255 253 -0.237265 0.106519 0.818163
-0.235448 0.106479 0.818038 255 255 253 -0.235448 0.106479 0.818038
-0.233703 0.106472 0.818163 255 255 253 -0.233703 0.106472 0.818163
-0.231924 0.106449 0.818163 255 255 253 -0.231924 0.106449 0.818163
-0.230215 0.106458 0.818413 255 255 253 -0.230215 0.106458 0.818413
-0.228507 0.106468 0.818663 255 255 253 -0.228507 0.106468 0.818663
-0.226867 0.106510 0.819162 255 255 253 -0.226867 0.106510 0.819162
-0.225227 0.106553 0.819662 255 255 253 -0.225227 0.106553 0.819662
-0.196966 0.106269 0.820037 255 255 251 -0.196966 0.106269 0.820037
-0.194902 0.106088 0.818788 255 255 251 -0.194902 0.106088 0.818788
-0.193110 0.106053 0.818663 255 255 253 -0.193110 0.106053 0.818663
-0.191319 0.106018 0.818538 255 255 253 -0.191319 0.106018 0.818538
-0.189530 0.105983 0.818413 255 255 253 -0.189530 0.105983 0.818413
-0.187770 0.105965 0.818413 255 255 253 -0.187770 0.105965 0.818413
-0.186040 0.105963 0.818538 255 255 253 -0.186040 0.105963 0.818538
-0.184310 0.105961 0.818663 255 255 253 -0.184310 0.105961 0.818663
-0.182607 0.105976 0.818913 255 255 253 -0.182607 0.105976 0.818913
-0.180932 0.106007 0.819287 255 255 253 -0.180932 0.106007 0.819287
-0.179283 0.106054 0.819787 255 255 253 -0.179283 0.106054 0.819787
-0.177633 0.106102 0.820287 255 255 253 -0.177633 0.106102 0.820287
-0.175955 0.106133 0.820662 255 255 253 -0.175955 0.106133 0.820662
-0.174302 0.106181 0.821162 255 255 253 -0.174302 0.106181 0.821162
-0.172621 0.106213 0.821537 255 255 253 -0.172621 0.106213 0.821537
-0.170940 0.106245 0.821912 255 255 249 -0.170940 0.106245 0.821912
-0.169257 0.106277 0.822287 250 251 244 -0.169257 0.106277 0.822287
-0.167548 0.106294 0.822537 251 241 228 -0.167548 0.106294 0.822537
-0.165839 0.106310 0.822787 255 255 249 -0.165839 0.106310 0.822787
-0.164104 0.106310 0.822912 255 255 249 -0.164104 0.106310 0.822912
-0.162344 0.106295 0.822912 255 255 251 -0.162344 0.106295 0.822912
-0.160561 0.106263 0.822787 255 255 251 -0.160561 0.106263 0.822787
-0.158779 0.106232 0.822662 255 255 253 -0.158779 0.106232 0.822662
-0.156974 0.106185 0.822412 255 255 253 -0.156974 0.106185 0.822412
-0.155195 0.106154 0.822287 255 255 253 -0.155195 0.106154 0.822287
-0.031541 0.076288 0.594062 189 160 139 -0.031541 0.076288 0.594062
-0.030268 0.076237 0.593687 190 161 140 -0.030268 0.076237 0.593687
-0.028998 0.076187 0.593312 192 163 142 -0.028998 0.076187 0.593312
-0.015437 0.077202 0.601311 191 161 145 -0.015437 0.077202 0.601311
-0.014075 0.076688 0.597311 189 159 143 -0.014075 0.076688 0.597311
-0.011465 0.076094 0.592687 183 154 133 -0.011465 0.076094 0.592687
-0.010211 0.076062 0.592437 183 154 133 -0.010211 0.076062 0.592437
-0.008958 0.076030 0.592187 183 154 133 -0.008958 0.076030 0.592187
-0.007706 0.075998 0.591937 183 154 133 -0.007706 0.075998 0.591937
-0.006454 0.075967 0.591687 188 159 138 -0.006454 0.075967 0.591687
-0.005206 0.075967 0.591687 185 156 135 -0.005206 0.075967 0.591687
-0.003957 0.075952 0.591562 188 159 138 -0.003957 0.075952 0.591562
-0.002710 0.075953 0.591562 189 160 139 -0.002710 0.075953 0.591562
-0.001462 0.075954 0.591562 188 159 138 -0.001462 0.075954 0.591562
-0.000214 0.075971 0.591687 186 157 137 -0.000214 0.075971 0.591687
0.001035 0.075972 0.591687 184 155 134 0.001035 0.075972 0.591687
0.002283 0.075973 0.591687 184 155 134 0.002283 0.075973 0.591687
0.003532 0.075991 0.591812 183 154 133 0.003532 0.075991 0.591812
0.004781 0.075993 0.591812 182 153 132 0.004781 0.075993 0.591812
0.006031 0.076010 0.591937 183 154 133 0.006031 0.076010 0.591937
0.007280 0.076012 0.591937 182 153 132 0.007280 0.076012 0.591937
0.008529 0.076014 0.591937 178 149 128 0.008529 0.076014 0.591937
0.009783 0.076048 0.592187 177 148 127 0.009783 0.076048 0.592187
0.018898 0.077560 0.603810 178 149 128 0.018898 0.077560 0.603810
0.020036 0.077033 0.599686 179 150 130 0.020036 0.077033 0.599686
0.021098 0.076298 0.593937 177 148 127 0.021098 0.076298 0.593937
0.022273 0.076028 0.591812 176 147 126 0.022273 0.076028 0.591812
0.023469 0.075855 0.590437 174 144 128 0.023469 0.075855 0.590437
0.024717 0.075859 0.590437 171 142 125 0.024717 0.075859 0.590437
0.025953 0.075831 0.590187 172 143 127 0.025953 0.075831 0.590187
0.027201 0.075835 0.590187 169 139 123 0.027201 0.075835 0.590187
0.028448 0.075839 0.590187 168 138 122 0.028448 0.075839 0.590187
0.029696 0.075843 0.590187 167 137 121 0.029696 0.075843 0.590187
0.030944 0.075847 0.590187 168 139 118 0.030944 0.075847 0.590187
0.217817 0.106404 0.816163 176 153 149 0.217817 0.106404 0.816163
0.219538 0.106396 0.815913 235 248 224 0.219538 0.106396 0.815913
0.221258 0.106388 0.815663 250 255 223 0.221258 0.106388 0.815663
-0.393009 0.113074 0.833411 222 157 127 -0.393009 0.113074 0.833411
-0.390957 0.112995 0.833161 229 164 134 -0.390957 0.112995 0.833161
-0.388733 0.112865 0.832536 230 167 141 -0.388733 0.112865 0.832536
-0.386572 0.112753 0.832036 222 165 153 -0.386572 0.112753 0.832036
-0.384647 0.112709 0.832036 219 162 151 -0.384647 0.112709 0.832036
-0.382723 0.112665 0.832036 255 228 233 -0.382723 0.112665 0.832036
-0.380802 0.112621 0.832036 255 255 249 -0.380802 0.112621 0.832036
-0.378826 0.112561 0.831911 255 255 251 -0.378826 0.112561 0.831911
-0.376852 0.112501 0.831786 255 255 251 -0.376852 0.112501 0.831786
-0.374881 0.112441 0.831661 255 255 253 -0.374881 0.112441 0.831661
-0.368595 0.112146 0.830411 255 255 253 -0.368595 0.112146 0.830411
-0.366580 0.112071 0.830161 255 255 253 -0.366580 0.112071 0.830161
-0.364569 0.111996 0.829911 255 255 253 -0.364569 0.111996 0.829911
-0.362616 0.111938 0.829786 255 255 253 -0.362616 0.111938 0.829786
-0.360664 0.111881 0.829661 248 239 241 -0.360664 0.111881 0.829661
-0.358770 0.111841 0.829661 241 222 230 -0.358770 0.111841 0.829661
-0.356877 0.111801 0.829661 255 246 253 -0.356877 0.111801 0.829661
-0.354986 0.111761 0.829661 255 255 253 -0.354986 0.111761 0.829661
-0.353203 0.111755 0.829911 255 255 253 -0.353203 0.111755 0.829911
-0.351421 0.111750 0.830161 255 255 253 -0.351421 0.111750 0.830161
-0.349639 0.111745 0.830411 255 255 253 -0.349639 0.111745 0.830411
-0.347858 0.111740 0.830661 255 255 253 -0.347858 0.111740 0.830661
-0.346025 0.111718 0.830786 255 255 253 -0.346025 0.111718 0.830786
-0.344246 0.111714 0.831036 255 255 253 -0.344246 0.111714 0.831036
-0.342467 0.111709 0.831286 255 255 253 -0.342467 0.111709 0.831286
-0.340637 0.111689 0.831411 255 255 253 -0.340637 0.111689 0.831411
-0.338808 0.111668 0.831536 255 255 253 -0.338808 0.111668 0.831536
-0.336981 0.111648 0.831661 255 255 253 -0.336981 0.111648 0.831661
-0.334902 0.111544 0.831161 255 255 247 -0.334902 0.111544 0.831161
-0.324176 0.110895 0.827662 202 175 160 -0.324176 0.110895 0.827662
-0.322318 0.110860 0.827662 199 172 157 -0.322318 0.110860 0.827662
-0.320509 0.110842 0.827787 203 178 170 -0.320509 0.110842 0.827787
-0.318798 0.110858 0.828162 204 179 172 -0.318798 0.110858 0.828162
-0.317086 0.110874 0.828537 254 237 232 -0.317086 0.110874 0.828537
-0.315374 0.110890 0.828911 255 255 247 -0.315374 0.110890 0.828911
-0.313709 0.110923 0.829411 255 255 247 -0.313709 0.110923 0.829411
-0.311949 0.110923 0.829661 255 255 251 -0.311949 0.110923 0.829661
-0.310284 0.110957 0.830161 255 255 253 -0.310284 0.110957 0.830161
-0.308617 0.110990 0.830661 255 255 253 -0.308617 0.110990 0.830661
-0.306949 0.111024 0.831161 255 255 253 -0.306949 0.111024 0.831161
-0.305281 0.111059 0.831661 255 255 253 -0.305281 0.111059 0.831661
-0.303612 0.111093 0.832161 255 255 253 -0.303612 0.111093 0.832161
-0.298017 0.110980 0.832036 207 184 180 -0.298017 0.110980 0.832036
-0.296214 0.110966 0.832161 209 182 169 -0.296214 0.110966 0.832161
-0.294368 0.110935 0.832161 205 182 165 -0.294368 0.110935 0.832161
-0.292523 0.110904 0.832161 204 180 164 -0.292523 0.110904 0.832161
-0.290723 0.110889 0.832286 198 177 163 -0.290723 0.110889 0.832286
-0.288924 0.110876 0.832411 255 252 245 -0.288924 0.110876 0.832411
-0.287083 0.110845 0.832411 255 252 245 -0.287083 0.110845 0.832411
-0.285328 0.110849 0.832661 255 255 251 -0.285328 0.110849 0.832661
-0.283574 0.110852 0.832911 255 255 251 -0.283574 0.110852 0.832911
-0.281862 0.110872 0.833286 255 255 251 -0.281862 0.110872 0.833286
-0.280149 0.110893 0.833661 255 255 253 -0.280149 0.110893 0.833661
-0.278353 0.110880 0.833786 255 255 253 -0.278353 0.110880 0.833786
-0.276599 0.110885 0.834036 255 255 253 -0.276599 0.110885 0.834036
-0.274803 0.110873 0.834161 255 255 253 -0.274803 0.110873 0.834161
-0.272926 0.110828 0.834036 255 255 253 -0.272926 0.110828 0.834036
-0.271092 0.110799 0.834036 255 255 253 -0.271092 0.110799 0.834036
-0.269138 0.110722 0.833661 255 255 253 -0.269138 0.110722 0.833661
-0.267187 0.110644 0.833286 255 253 249 -0.267187 0.110644 0.833286
-0.265119 0.110517 0.832536 204 178 176 -0.265119 0.110517 0.832536
-0.262976 0.110357 0.831536 204 178 176 -0.262976 0.110357 0.831536
-0.260800 0.110181 0.830411 197 177 174 -0.260800 0.110181 0.830411
-0.258590 0.109988 0.829161 255 253 249 -0.258590 0.109988 0.829161
-0.256233 0.109730 0.827412 255 253 249 -0.256233 0.109730 0.827412
-0.253691 0.109389 0.825037 255 255 251 -0.253691 0.109389 0.825037
-0.251200 0.109064 0.822787 255 255 253 -0.251200 0.109064 0.822787
-0.248909 0.108824 0.821162 255 255 253 -0.248909 0.108824 0.821162
-0.246739 0.108633 0.819912 255 255 253 -0.246739 0.108633 0.819912
-0.244724 0.108508 0.819162 255 255 253 -0.244724 0.108508 0.819162
-0.242788 0.108417 0.818663 255 255 253 -0.242788 0.108417 0.818663
-0.240929 0.108359 0.818413 255 255 253 -0.240929 0.108359 0.818413
-0.239072 0.108302 0.818163 255 255 253 -0.239072 0.108302 0.818163
-0.237217 0.108244 0.817913 255 255 253 -0.237217 0.108244 0.817913
-0.235435 0.108220 0.817913 255 255 253 -0.235435 0.108220 0.817913
-0.233620 0.108180 0.817788 255 255 253 -0.233620 0.108180 0.817788
-0.231841 0.108157 0.817788 255 255 253 -0.231841 0.108157 0.817788
-0.230098 0.108150 0.817913 255 255 253 -0.230098 0.108150 0.817913
-0.228425 0.108176 0.818288 255 255 253 -0.228425 0.108176 0.818288
-0.226752 0.108203 0.818663 255 255 253 -0.226752 0.108203 0.818663
-0.225112 0.108246 0.819162 255 255 253 -0.225112 0.108246 0.819162
-0.209410 0.111889 0.848909 255 246 238 -0.209410 0.111889 0.848909
-0.197195 0.108140 0.820912 255 255 251 -0.197195 0.108140 0.820912
-0.194862 0.107808 0.818538 255 255 251 -0.194862 0.107808 0.818538
-0.193070 0.107772 0.818413 255 255 251 -0.193070 0.107772 0.818413
-0.191309 0.107753 0.818413 255 255 253 -0.191309 0.107753 0.818413
-0.189548 0.107735 0.818413 255 255 253 -0.189548 0.107735 0.818413
-0.187760 0.107700 0.818288 255 255 253 -0.187760 0.107700 0.818288
-0.186030 0.107698 0.818413 255 255 253 -0.186030 0.107698 0.818413
-0.184271 0.107680 0.818413 255 255 253 -0.184271 0.107680 0.818413
-0.182625 0.107727 0.818913 255 255 253 -0.182625 0.107727 0.818913
-0.180950 0.107759 0.819287 255 255 253 -0.180950 0.107759 0.819287
-0.179273 0.107791 0.819662 255 255 253 -0.179273 0.107791 0.819662
-0.177623 0.107839 0.820162 255 255 253 -0.177623 0.107839 0.820162
-0.175972 0.107888 0.820662 255 255 253 -0.175972 0.107888 0.820662
-0.174319 0.107936 0.821162 255 255 253 -0.174319 0.107936 0.821162
-0.172612 0.107952 0.821412 255 255 253 -0.172612 0.107952 0.821412
-0.170956 0.108001 0.821912 254 255 250 -0.170956 0.108001 0.821912
-0.169273 0.108034 0.822287 249 250 245 -0.169273 0.108034 0.822287
-0.167564 0.108051 0.822537 248 240 235 -0.167564 0.108051 0.822537
-0.165855 0.108068 0.822787 255 255 249 -0.165855 0.108068 0.822787
-0.164120 0.108068 0.822912 255 255 249 -0.164120 0.108068 0.822912
-0.162360 0.108052 0.822912 255 255 251 -0.162360 0.108052 0.822912
-0.160576 0.108020 0.822787 255 255 251 -0.160576 0.108020 0.822787
-0.158794 0.107989 0.822662 255 255 253 -0.158794 0.107989 0.822662
-0.156989 0.107941 0.822412 255 255 253 -0.156989 0.107941 0.822412
-0.155233 0.107926 0.822412 255 255 253 -0.155233 0.107926 0.822412
-0.153454 0.107895 0.822287 255 255 253 -0.153454 0.107895 0.822287
-0.151699 0.107880 0.822287 255 255 253 -0.151699 0.107880 0.822287
-0.149945 0.107866 0.822287 255 255 253 -0.149945 0.107866 0.822287
-0.148213 0.107868 0.822412 255 255 253 -0.148213 0.107868 0.822412
-0.146482 0.107871 0.822537 255 255 253 -0.146482 0.107871 0.822537
-0.144751 0.107873 0.822662 255 255 253 -0.144751 0.107873 0.822662
-0.143041 0.107892 0.822912 255 255 253 -0.143041 0.107892 0.822912
-0.141331 0.107912 0.823162 255 255 253 -0.141331 0.107912 0.823162
-0.139599 0.107915 0.823287 255 255 253 -0.139599 0.107915 0.823287
-0.137888 0.107935 0.823537 255 255 253 -0.137888 0.107935 0.823537
-0.136176 0.107955 0.823787 255 255 245 -0.136176 0.107955 0.823787
-0.134464 0.107975 0.824037 245 244 233 -0.134464 0.107975 0.824037
-0.132751 0.107995 0.824287 255 251 235 -0.132751 0.107995 0.824287
-0.131058 0.108032 0.824662 255 255 249 -0.131058 0.108032 0.824662
-0.129344 0.108052 0.824912 255 255 249 -0.129344 0.108052 0.824912
-0.127629 0.108073 0.825162 255 255 251 -0.127629 0.108073 0.825162
-0.125913 0.108094 0.825412 255 255 253 -0.125913 0.108094 0.825412
-0.124178 0.108099 0.825537 255 255 253 -0.124178 0.108099 0.825537
-0.122425 0.108088 0.825537 255 255 253 -0.122425 0.108088 0.825537
-0.120653 0.108060 0.825412 255 255 253 -0.120653 0.108060 0.825412
-0.118865 0.108016 0.825162 255 255 253 -0.118865 0.108016 0.825162
-0.099542 0.107826 0.824537 255 247 247 -0.099542 0.107826 0.824537
-0.000213 0.077261 0.591937 187 161 143 -0.000213 0.077261 0.591937
0.001036 0.077263 0.591937 188 162 144 0.001036 0.077263 0.591937
0.002285 0.077264 0.591937 189 163 145 0.002285 0.077264 0.591937
0.003535 0.077282 0.592062 186 160 140 0.003535 0.077282 0.592062
0.007285 0.077303 0.592187 186 157 139 0.007285 0.077303 0.592187
0.008537 0.077322 0.592312 184 155 136 0.008537 0.077322 0.592312
0.018949 0.079040 0.605310 185 156 135 0.018949 0.079040 0.605310
0.020164 0.078798 0.603436 185 156 137 0.020164 0.078798 0.603436
0.021182 0.077855 0.596186 184 155 136 0.021182 0.077855 0.596186
0.022300 0.077369 0.592437 182 152 134 0.022300 0.077369 0.592437
0.023482 0.077144 0.590687 181 151 135 0.023482 0.077144 0.590687
0.024726 0.077131 0.590562 178 149 132 0.024726 0.077131 0.590562
0.025968 0.077119 0.590437 177 147 131 0.025968 0.077119 0.590437
0.027216 0.077123 0.590437 178 149 132 0.027216 0.077123 0.590437
0.028459 0.077111 0.590312 175 145 129 0.028459 0.077111 0.590312
0.029707 0.077115 0.590312 171 142 125 0.029707 0.077115 0.590312
0.030949 0.077103 0.590187 172 143 125 0.030949 0.077103 0.590187
0.032190 0.077091 0.590062 170 141 122 0.032190 0.077091 0.590062
-0.392352 0.115219 0.836036 226 164 133 -0.392352 0.115219 0.836036
-0.389595 0.114932 0.834286 225 163 132 -0.389595 0.114932 0.834286
-0.386907 0.114663 0.832661 223 161 141 -0.386907 0.114663 0.832661
-0.384633 0.114515 0.831911 217 155 135 -0.384633 0.114515 0.831911
-0.382710 0.114470 0.831911 250 190 193 -0.382710 0.114470 0.831911
-0.380731 0.114409 0.831786 255 244 239 -0.380731 0.114409 0.831786
-0.378755 0.114348 0.831661 255 255 251 -0.378755 0.114348 0.831661
-0.376839 0.114304 0.831661 255 255 251 -0.376839 0.114304 0.831661
-0.374867 0.114244 0.831536 255 255 253 -0.374867 0.114244 0.831536
-0.372955 0.114201 0.831536 255 255 253 -0.372955 0.114201 0.831536
-0.370877 0.114106 0.831161 255 255 253 -0.370877 0.114106 0.831161
-0.368747 0.113996 0.830661 255 255 253 -0.368747 0.113996 0.830661
-0.366677 0.113902 0.830286 255 255 253 -0.366677 0.113902 0.830286
-0.364665 0.113826 0.830036 255 255 253 -0.364665 0.113826 0.830036
-0.362711 0.113767 0.829911 255 255 253 -0.362711 0.113767 0.829911
-0.360705 0.113692 0.829661 255 255 253 -0.360705 0.113692 0.829661
-0.358810 0.113651 0.829661 245 236 236 -0.358810 0.113651 0.829661
-0.356917 0.113611 0.829661 222 214 214 -0.356917 0.113611 0.829661
-0.355026 0.113571 0.829661 251 236 237 -0.355026 0.113571 0.829661
-0.353242 0.113565 0.829911 255 255 249 -0.353242 0.113565 0.829911
-0.351460 0.113559 0.830161 255 255 249 -0.351460 0.113559 0.830161
-0.349678 0.113554 0.830411 255 255 251 -0.349678 0.113554 0.830411
-0.347844 0.113532 0.830536 255 255 253 -0.347844 0.113532 0.830536
-0.346116 0.113545 0.830911 255 255 253 -0.346116 0.113545 0.830911
-0.344336 0.113540 0.831161 255 255 253 -0.344336 0.113540 0.831161
-0.342556 0.113536 0.831411 255 255 253 -0.342556 0.113536 0.831411
-0.340777 0.113532 0.831661 255 255 253 -0.340777 0.113532 0.831661
-0.338947 0.113511 0.831786 255 255 253 -0.338947 0.113511 0.831786
-0.336967 0.113440 0.831536 255 255 253 -0.336967 0.113440 0.831536
-0.326023 0.112711 0.827537 201 171 158 -0.326023 0.112711 0.827537
-0.324114 0.112659 0.827412 198 171 153 -0.324114 0.112659 0.827412
-0.322255 0.112623 0.827412 196 170 152 -0.322255 0.112623 0.827412
-0.320447 0.112605 0.827537 195 169 151 -0.320447 0.112605 0.827537
-0.318736 0.112621 0.827912 201 177 162 -0.318736 0.112621 0.827912
-0.317072 0.112654 0.828412 203 180 176 -0.317072 0.112654 0.828412
-0.315361 0.112671 0.828786 255 254 243 -0.315361 0.112671 0.828786
-0.313648 0.112688 0.829161 255 254 243 -0.313648 0.112688 0.829161
-0.311936 0.112705 0.829536 255 255 251 -0.311936 0.112705 0.829536
-0.310224 0.112722 0.829911 255 255 251 -0.310224 0.112722 0.829911
-0.308557 0.112756 0.830411 255 255 251 -0.308557 0.112756 0.830411
-0.306890 0.112791 0.830911 255 255 253 -0.306890 0.112791 0.830911
-0.305268 0.112843 0.831536 255 255 253 -0.305268 0.112843 0.831536
-0.303599 0.112878 0.832036 255 255 253 -0.303599 0.112878 0.832036
-0.298048 0.112780 0.832036 212 181 172 -0.298048 0.112780 0.832036
-0.296201 0.112749 0.832036 205 178 160 -0.296201 0.112749 0.832036
-0.294399 0.112734 0.832161 205 178 158 -0.294399 0.112734 0.832161
-0.292554 0.112703 0.832161 202 176 156 -0.292554 0.112703 0.832161
-0.290711 0.112671 0.832161 199 176 157 -0.290711 0.112671 0.832161
-0.288868 0.112641 0.832161 196 176 173 -0.288868 0.112641 0.832161
-0.287070 0.112627 0.832286 244 224 221 -0.287070 0.112627 0.832286
-0.285315 0.112630 0.832536 255 253 249 -0.285315 0.112630 0.832536
-0.283561 0.112634 0.832786 255 255 251 -0.283561 0.112634 0.832786
-0.281849 0.112655 0.833161 255 255 251 -0.281849 0.112655 0.833161
-0.280095 0.112659 0.833411 255 255 251 -0.280095 0.112659 0.833411
-0.278340 0.112663 0.833661 255 255 253 -0.278340 0.112663 0.833661
-0.276586 0.112667 0.833911 255 255 253 -0.276586 0.112667 0.833911
-0.274749 0.112638 0.833911 255 255 253 -0.274749 0.112638 0.833911
-0.272955 0.112626 0.834036 255 255 253 -0.272955 0.112626 0.834036
-0.271080 0.112581 0.833911 255 255 253 -0.271080 0.112581 0.833911
-0.269166 0.112519 0.833661 232 222 214 -0.269166 0.112519 0.833661
-0.267174 0.112423 0.833161 212 181 172 -0.267174 0.112423 0.833161
-0.265146 0.112311 0.832536 201 174 159 -0.265146 0.112311 0.832536
-0.263043 0.112166 0.831661 196 170 154 -0.263043 0.112166 0.831661
-0.260866 0.111986 0.830536 191 167 153 -0.260866 0.111986 0.830536
-0.258617 0.111774 0.829161 185 164 163 -0.258617 0.111774 0.829161
-0.256259 0.111511 0.827412 255 248 249 -0.256259 0.111511 0.827412
-0.253756 0.111182 0.825162 255 255 251 -0.253756 0.111182 0.825162
-0.251302 0.110869 0.823037 255 255 253 -0.251302 0.110869 0.823037
-0.248972 0.110608 0.821287 255 255 253 -0.248972 0.110608 0.821287
-0.246802 0.110414 0.820037 255 255 253 -0.246802 0.110414 0.820037
-0.244749 0.110270 0.819162 255 255 253 -0.244749 0.110270 0.819162
-0.242739 0.110144 0.818413 255 255 253 -0.242739 0.110144 0.818413
-0.240880 0.110086 0.818163 255 255 253 -0.240880 0.110086 0.818163
-0.239023 0.110027 0.817913 255 255 253 -0.239023 0.110027 0.817913
-0.237168 0.109969 0.817663 255 255 253 -0.237168 0.109969 0.817663
-0.235388 0.109945 0.817663 255 255 253 -0.235388 0.109945 0.817663
-0.233536 0.109887 0.817413 255 255 253 -0.233536 0.109887 0.817413
-0.231758 0.109863 0.817413 255 255 253 -0.231758 0.109863 0.817413
-0.230051 0.109873 0.817663 255 255 253 -0.230051 0.109873 0.817663
-0.228344 0.109883 0.817913 255 255 253 -0.228344 0.109883 0.817913
-0.226671 0.109910 0.818288 255 255 253 -0.226671 0.109910 0.818288
-0.224997 0.109938 0.818663 255 255 253 -0.224997 0.109938 0.818663
-0.211450 0.113830 0.849659 211 198 186 -0.211450 0.113830 0.849659
-0.209431 0.113708 0.848909 255 248 236 -0.209431 0.113708 0.848909
-0.207142 0.113436 0.847035 255 253 241 -0.207142 0.113436 0.847035
-0.197155 0.109865 0.820662 255 255 251 -0.197155 0.109865 0.820662
-0.194792 0.109510 0.818163 255 255 251 -0.194792 0.109510 0.818163
-0.193030 0.109491 0.818163 255 255 253 -0.193030 0.109491 0.818163
-0.191269 0.109472 0.818163 255 255 253 -0.191269 0.109472 0.818163
-0.189509 0.109453 0.818163 255 255 253 -0.189509 0.109453 0.818163
-0.187750 0.109434 0.818163 255 255 253 -0.187750 0.109434 0.818163
-0.186019 0.109432 0.818288 255 255 253 -0.186019 0.109432 0.818288
-0.184289 0.109431 0.818413 255 255 253 -0.184289 0.109431 0.818413
-0.182615 0.109463 0.818788 255 255 253 -0.182615 0.109463 0.818788
-0.180940 0.109495 0.819162 255 255 253 -0.180940 0.109495 0.819162
-0.179291 0.109544 0.819662 255 255 253 -0.179291 0.109544 0.819662
-0.177641 0.109593 0.820162 255 255 253 -0.177641 0.109593 0.820162
-0.175989 0.109642 0.820662 255 255 253 -0.175989 0.109642 0.820662
-0.174336 0.109692 0.821162 255 255 253 -0.174336 0.109692 0.821162
-0.172629 0.109708 0.821412 255 255 253 -0.172629 0.109708 0.821412
-0.170947 0.109742 0.821787 255 255 253 -0.170947 0.109742 0.821787
-0.169264 0.109775 0.822162 251 252 249 -0.169264 0.109775 0.822162
-0.167581 0.109809 0.822537 254 255 248 -0.167581 0.109809 0.822537
-0.165871 0.109826 0.822787 255 255 251 -0.165871 0.109826 0.822787
-0.164135 0.109826 0.822912 255 255 251 -0.164135 0.109826 0.822912
-0.162376 0.109810 0.822912 255 255 251 -0.162376 0.109810 0.822912
-0.160616 0.109795 0.822912 255 255 251 -0.160616 0.109795 0.822912
-0.158809 0.109746 0.822662 255 255 251 -0.158809 0.109746 0.822662
-0.157028 0.109714 0.822537 255 255 251 -0.157028 0.109714 0.822537
-0.155248 0.109682 0.822412 255 255 251 -0.155248 0.109682 0.822412
-0.153468 0.109651 0.822287 255 255 251 -0.153468 0.109651 0.822287
-0.151713 0.109636 0.822287 255 255 251 -0.151713 0.109636 0.822287
-0.149959 0.109621 0.822287 255 255 251 -0.149959 0.109621 0.822287
-0.148227 0.109624 0.822412 255 255 251 -0.148227 0.109624 0.822412
