ply
format ascii 1.0
element vertex 756
property float x
property float y
property float z
property uchar red
property uchar green
property uchar blue
property float nx
property float ny
property float nz
end_header
0.089699 -0.003717 0.379945 255 0 69 0.089699 -0.003717 0.379945
0.090485 -0.003715 0.379789 254 0 69 0.090485 -0.003715 0.379789
0.091354 -0.003716 0.379976 255 0 73 0.091354 -0.003716 0.379976
0.048058 -0.003262 0.421488 255 39 49 0.048058 -0.003262 0.421488
0.059468 -0.003755 0.485427 255 46 59 0.059468 -0.003755 0.485427
0.058308 -0.003042 0.393907 255 42 55 0.058308 -0.003042 0.393907
0.058997 -0.003034 0.392908 255 38 59 0.058997 -0.003034 0.392908
0.059692 -0.003027 0.391971 255 37 58 0.059692 -0.003027 0.391971
0.060455 -0.003022 0.391502 255 37 58 0.060455 -0.003022 0.391502
0.061202 -0.003018 0.390940 255 32 56 0.061202 -0.003018 0.390940
0.061903 -0.003011 0.390097 255 29 78 0.061903 -0.003011 0.390097
0.062675 -0.003007 0.389722 255 30 79 0.062675 -0.003007 0.389722
0.063385 -0.003001 0.388972 255 28 80 0.063385 -0.003001 0.388972
0.064164 -0.002998 0.388660 255 23 71 0.064164 -0.002998 0.388660
0.064896 -0.002993 0.388066 255 23 71 0.064896 -0.002993 0.388066
0.065598 -0.002987 0.387317 255 26 75 0.065598 -0.002987 0.387317
0.066352 -0.002983 0.386879 255 28 79 0.066352 -0.002983 0.386879
0.067103 -0.002979 0.386442 255 28 79 0.067103 -0.002979 0.386442
0.067892 -0.002977 0.386223 254 11 57 0.067892 -0.002977 0.386223
0.068669 -0.002974 0.385942 255 14 68 0.068669 -0.002974 0.385942
0.069366 -0.002968 0.385224 255 8 44 0.069366 -0.002968 0.385224
0.070152 -0.002966 0.385005 255 10 46 0.070152 -0.002966 0.385005
0.070845 -0.002959 0.384287 255 16 39 0.070845 -0.002959 0.384287
0.071552 -0.002954 0.383662 255 16 31 0.071552 -0.002954 0.383662
0.072310 -0.002951 0.383319 255 19 35 0.072310 -0.002951 0.383319
0.073032 -0.002946 0.382788 255 10 39 0.073032 -0.002946 0.382788
0.073824 -0.002944 0.382631 255 0 65 0.073824 -0.002944 0.382631
0.074560 -0.002940 0.382194 255 0 64 0.074560 -0.002940 0.382194
0.075295 -0.002936 0.381757 255 0 76 0.075295 -0.002936 0.381757
0.076091 -0.002935 0.381632 255 0 73 0.076091 -0.002935 0.381632
0.076874 -0.002933 0.381445 255 0 73 0.076874 -0.002933 0.381445
0.077682 -0.002932 0.381382 255 0 55 0.077682 -0.002932 0.381382
0.078523 -0.002932 0.381476 255 0 48 0.078523 -0.002932 0.381476
0.079279 -0.002929 0.381163 255 0 46 0.079279 -0.002929 0.381163
0.080114 -0.002929 0.381226 255 0 49 0.080114 -0.002929 0.381226
0.080902 -0.002927 0.381070 255 0 47 0.080902 -0.002927 0.381070
0.081718 -0.002926 0.381038 255 0 48 0.081718 -0.002926 0.381038
0.082546 -0.002926 0.381070 255 0 47 0.082546 -0.002926 0.381070
0.083342 -0.002924 0.380945 255 0 57 0.083342 -0.002924 0.380945
0.084137 -0.002922 0.380820 255 0 63 0.084137 -0.002922 0.380820
0.084946 -0.002921 0.380757 255 0 60 0.084946 -0.002921 0.380757
0.085720 -0.002919 0.380539 255 0 59 0.085720 -0.002919 0.380539
0.086500 -0.002917 0.380351 255 0 56 0.086500 -0.002917 0.380351
0.087309 -0.002915 0.380289 251 0 45 0.087309 -0.002915 0.380289
0.088103 -0.002914 0.380164 255 0 57 0.088103 -0.002914 0.380164
0.088942 -0.002914 0.380226 254 0 56 0.088942 -0.002914 0.380226
0.089751 -0.002912 0.380164 255 0 71 0.089751 -0.002912 0.380164
0.090538 -0.002910 0.380008 253 0 71 0.090538 -0.002910 0.380008
0.091400 -0.002911 0.380164 255 0 72 0.091400 -0.002911 0.380164
0.058317 -0.002211 0.393970 255 31 50 0.058317 -0.002211 0.393970
0.059007 -0.002205 0.392970 255 23 50 0.059007 -0.002205 0.392970
0.059702 -0.002199 0.392033 255 28 41 0.059702 -0.002199 0.392033
0.060475 -0.002197 0.391627 255 25 38 0.060475 -0.002197 0.391627
0.061222 -0.002193 0.391065 255 22 46 0.061222 -0.002193 0.391065
0.061918 -0.002187 0.390190 255 22 67 0.061918 -0.002187 0.390190
0.062691 -0.002185 0.389816 255 20 64 0.062691 -0.002185 0.389816
0.063406 -0.002180 0.389097 255 12 60 0.063406 -0.002180 0.389097
0.064186 -0.002178 0.388785 255 2 52 0.064186 -0.002178 0.388785
0.064922 -0.002174 0.388223 255 8 58 0.064922 -0.002174 0.388223
0.065625 -0.002169 0.387473 254 6 55 0.065625 -0.002169 0.387473
0.066384 -0.002166 0.387067 255 16 52 0.066384 -0.002166 0.387067
0.067131 -0.002163 0.386598 255 19 54 0.067131 -0.002163 0.386598
0.067920 -0.002161 0.386380 252 6 38 0.067920 -0.002161 0.386380
0.068697 -0.002159 0.386099 255 9 45 0.068697 -0.002159 0.386099
0.069395 -0.002154 0.385380 255 8 44 0.069395 -0.002154 0.385380
0.070186 -0.002153 0.385193 255 13 50 0.070186 -0.002153 0.385193
0.070874 -0.002148 0.384443 255 0 50 0.070874 -0.002148 0.384443
0.071582 -0.002143 0.383818 255 0 56 0.071582 -0.002143 0.383818
0.072341 -0.002141 0.383475 255 0 52 0.072341 -0.002141 0.383475
0.073074 -0.002138 0.383006 255 1 62 0.073074 -0.002138 0.383006
0.073860 -0.002136 0.382819 255 0 59 0.073860 -0.002136 0.382819
0.074610 -0.002133 0.382444 255 0 54 0.074610 -0.002133 0.382444
0.075339 -0.002130 0.381976 255 0 64 0.075339 -0.002130 0.381976
0.076135 -0.002128 0.381851 255 0 62 0.076135 -0.002128 0.381851
0.076900 -0.002126 0.381569 255 0 71 0.076900 -0.002126 0.381569
0.077702 -0.002125 0.381476 247 0 49 0.077702 -0.002125 0.381476
0.078543 -0.002124 0.381569 255 0 53 0.078543 -0.002124 0.381569
0.079306 -0.002122 0.381288 255 0 51 0.079306 -0.002122 0.381288
0.080134 -0.002122 0.381320 254 0 38 0.080134 -0.002122 0.381320
0.080923 -0.002120 0.381163 255 0 48 0.080923 -0.002120 0.381163
0.081738 -0.002119 0.381132 255 0 51 0.081738 -0.002119 0.381132
0.082574 -0.002119 0.381195 255 0 62 0.082574 -0.002119 0.381195
0.083363 -0.002117 0.381038 255 0 68 0.083363 -0.002117 0.381038
0.084165 -0.002116 0.380945 255 0 70 0.084165 -0.002116 0.380945
0.084982 -0.002115 0.380914 255 0 61 0.084982 -0.002115 0.380914
0.085756 -0.002113 0.380695 255 0 66 0.085756 -0.002113 0.380695
0.086537 -0.002111 0.380507 250 0 61 0.086537 -0.002111 0.380507
0.087353 -0.002110 0.380476 255 0 64 0.087353 -0.002110 0.380476
0.088148 -0.002108 0.380351 254 0 59 0.088148 -0.002108 0.380351
0.088979 -0.002107 0.380383 252 0 57 0.088979 -0.002107 0.380383
0.089796 -0.002106 0.380351 255 0 62 0.089796 -0.002106 0.380351
0.090576 -0.002105 0.380164 253 0 60 0.090576 -0.002105 0.380164
0.091446 -0.002105 0.380351 253 0 60 0.091446 -0.002105 0.380351
0.058327 -0.001380 0.394032 254 0 32 0.058327 -0.001380 0.394032
0.059021 -0.001376 0.393064 255 0 34 0.059021 -0.001376 0.393064
0.059717 -0.001372 0.392127 255 0 16 0.059717 -0.001372 0.392127
0.060500 -0.001370 0.391783 253 0 11 0.060500 -0.001370 0.391783
0.061238 -0.001368 0.391159 255 17 16 0.061238 -0.001368 0.391159
0.061938 -0.001364 0.390315 255 16 44 0.061938 -0.001364 0.390315
0.062706 -0.001362 0.389909 255 15 43 0.062706 -0.001362 0.389909
0.063422 -0.001359 0.389191 255 4 56 0.063422 -0.001359 0.389191
0.064202 -0.001357 0.388878 255 0 52 0.064202 -0.001357 0.388878
0.064939 -0.001354 0.388316 255 0 51 0.064939 -0.001354 0.388316
0.065647 -0.001351 0.387598 255 2 44 0.065647 -0.001351 0.387598
0.066412 -0.001349 0.387223 255 0 41 0.066412 -0.001349 0.387223
0.067159 -0.001346 0.386755 255 0 43 0.067159 -0.001346 0.386755
0.067948 -0.001345 0.386536 254 0 39 0.067948 -0.001345 0.386536
0.068720 -0.001343 0.386223 255 0 29 0.068720 -0.001343 0.386223
0.069418 -0.001340 0.385505 255 0 60 0.069418 -0.001340 0.385505
0.070221 -0.001339 0.385380 255 0 57 0.070221 -0.001339 0.385380
0.070904 -0.001335 0.384599 255 0 56 0.070904 -0.001335 0.384599
0.071612 -0.001332 0.383975 255 0 61 0.071612 -0.001332 0.383975
0.072371 -0.001330 0.383631 254 0 56 0.072371 -0.001330 0.383631
0.073117 -0.001328 0.383225 255 0 59 0.073117 -0.001328 0.383225
0.073903 -0.001326 0.383038 255 0 67 0.073903 -0.001326 0.383038
0.074665 -0.001325 0.382725 255 0 69 0.074665 -0.001325 0.382725
0.075383 -0.001322 0.382194 255 0 75 0.075383 -0.001322 0.382194
0.076186 -0.001321 0.382100 250 0 64 0.076186 -0.001321 0.382100
0.076939 -0.001319 0.381757 255 0 71 0.076939 -0.001319 0.381757
0.077728 -0.001317 0.381601 255 0 83 0.077728 -0.001317 0.381601
0.078569 -0.001317 0.381694 255 0 67 0.078569 -0.001317 0.381694
0.079333 -0.001315 0.381413 255 0 59 0.079333 -0.001315 0.381413
0.080168 -0.001314 0.381476 255 0 52 0.080168 -0.001314 0.381476
0.080957 -0.001313 0.381320 255 0 52 0.080957 -0.001313 0.381320
0.081773 -0.001312 0.381288 255 0 49 0.081773 -0.001312 0.381288
0.082609 -0.001311 0.381351 255 0 54 0.082609 -0.001311 0.381351
0.083398 -0.001310 0.381195 255 0 66 0.083398 -0.001310 0.381195
0.084201 -0.001308 0.381101 255 0 65 0.084201 -0.001308 0.381101
0.085024 -0.001307 0.381101 255 0 65 0.085024 -0.001307 0.381101
0.085799 -0.001306 0.380882 255 0 71 0.085799 -0.001306 0.380882
0.086587 -0.001304 0.380726 254 0 69 0.086587 -0.001304 0.380726
0.087411 -0.001303 0.380726 255 0 67 0.087411 -0.001303 0.380726
0.088199 -0.001302 0.380570 254 0 58 0.088199 -0.001302 0.380570
0.089038 -0.001301 0.380632 255 0 60 0.089038 -0.001301 0.380632
0.089849 -0.001300 0.380570 253 0 54 0.089849 -0.001300 0.380570
0.090629 -0.001298 0.380383 254 2 53 0.090629 -0.001298 0.380383
0.091492 -0.001298 0.380539 255 6 57 0.091492 -0.001298 0.380539
0.058443 -0.000550 0.394813 255 3 4 0.058443 -0.000550 0.394813
0.059111 -0.000547 0.393657 255 0 5 0.059111 -0.000547 0.393657
0.059770 -0.000545 0.392471 254 0 23 0.059770 -0.000545 0.392471
0.060534 -0.000543 0.392002 255 0 28 0.060534 -0.000543 0.392002
0.061268 -0.000542 0.391346 255 0 37 0.061268 -0.000542 0.391346
0.061969 -0.000540 0.390503 251 0 31 0.061969 -0.000540 0.390503
0.062727 -0.000538 0.390034 255 0 36 0.062727 -0.000538 0.390034
0.063448 -0.000537 0.389347 255 0 37 0.063448 -0.000537 0.389347
0.064228 -0.000535 0.389035 255 0 35 0.064228 -0.000535 0.389035
0.064960 -0.000534 0.388441 253 0 28 0.064960 -0.000534 0.388441
0.065669 -0.000532 0.387723 244 0 7 0.065669 -0.000532 0.387723
0.066434 -0.000531 0.387348 255 0 34 0.066434 -0.000531 0.387348
0.067187 -0.000529 0.386911 255 0 39 0.067187 -0.000529 0.386911
0.067976 -0.000528 0.386692 255 0 51 0.067976 -0.000528 0.386692
0.068749 -0.000527 0.386380 255 0 52 0.068749 -0.000527 0.386380
0.069453 -0.000525 0.385693 250 0 41 0.069453 -0.000525 0.385693
0.070251 -0.000524 0.385536 255 0 46 0.070251 -0.000524 0.385536
0.070933 -0.000522 0.384755 255 0 48 0.070933 -0.000522 0.384755
0.071642 -0.000520 0.384131 250 0 36 0.071642 -0.000520 0.384131
0.072401 -0.000519 0.383787 255 0 43 0.072401 -0.000519 0.383787
0.073171 -0.000517 0.383506 255 0 40 0.073171 -0.000517 0.383506
0.073952 -0.000516 0.383287 255 0 58 0.073952 -0.000516 0.383287
0.074727 -0.000515 0.383038 255 0 56 0.074727 -0.000515 0.383038
0.075433 -0.000513 0.382444 255 0 61 0.075433 -0.000513 0.382444
0.076243 -0.000512 0.382382 251 0 47 0.076243 -0.000512 0.382382
0.076984 -0.000511 0.381976 255 0 60 0.076984 -0.000511 0.381976
0.077761 -0.000509 0.381757 255 0 51 0.077761 -0.000509 0.381757
0.078602 -0.000509 0.381851 255 0 44 0.078602 -0.000509 0.381851
0.079373 -0.000507 0.381601 255 0 42 0.079373 -0.000507 0.381601
0.080195 -0.000506 0.381601 255 0 31 0.080195 -0.000506 0.381601
0.080998 -0.000505 0.381507 255 0 31 0.080998 -0.000505 0.381507
0.081807 -0.000504 0.381445 255 0 33 0.081807 -0.000504 0.381445
0.082644 -0.000503 0.381507 255 0 37 0.082644 -0.000503 0.381507
0.083433 -0.000502 0.381351 254 0 40 0.083433 -0.000502 0.381351
0.084243 -0.000501 0.381288 255 0 47 0.084243 -0.000501 0.381288
0.085067 -0.000500 0.381288 254 0 46 0.085067 -0.000500 0.381288
0.085842 -0.000498 0.381070 253 0 48 0.085842 -0.000498 0.381070
0.086638 -0.000497 0.380945 252 0 47 0.086638 -0.000497 0.380945
0.087462 -0.000496 0.380945 255 0 56 0.087462 -0.000496 0.380945
0.088258 -0.000495 0.380820 248 0 36 0.088258 -0.000495 0.380820
0.089091 -0.000493 0.380851 254 0 42 0.089091 -0.000493 0.380851
0.089909 -0.000492 0.380820 251 0 33 0.089909 -0.000492 0.380820
0.090690 -0.000491 0.380632 242 0 23 0.090690 -0.000491 0.380632
0.091546 -0.000490 0.380757 255 0 37 0.091546 -0.000490 0.380757
0.058541 0.000284 0.395469 255 0 26 0.058541 0.000284 0.395469
0.059206 0.000284 0.394282 254 0 19 0.059206 0.000284 0.394282
0.059823 0.000284 0.392814 255 0 22 0.059823 0.000284 0.392814
0.060569 0.000284 0.392221 255 0 19 0.060569 0.000284 0.392221
0.061288 0.000285 0.391471 254 0 24 0.061288 0.000285 0.391471
0.061990 0.000285 0.390628 255 0 36 0.061990 0.000285 0.390628
0.062753 0.000285 0.390190 249 0 27 0.062753 0.000285 0.390190
0.063495 0.000286 0.389628 255 0 23 0.063495 0.000286 0.389628
0.064270 0.000287 0.389285 255 0 20 0.064270 0.000287 0.389285
0.065019 0.000287 0.388785 254 0 18 0.065019 0.000287 0.388785
0.065718 0.000288 0.388004 255 0 4 0.065718 0.000288 0.388004
0.066494 0.000288 0.387692 252 0 25 0.066494 0.000288 0.387692
0.067231 0.000289 0.387161 254 0 28 0.067231 0.000289 0.387161
0.067999 0.000289 0.386817 254 0 38 0.067999 0.000289 0.386817
0.068772 0.000290 0.386505 255 0 36 0.068772 0.000290 0.386505
0.069476 0.000291 0.385817 255 0 36 0.069476 0.000291 0.385817
0.070274 0.000292 0.385661 255 0 45 0.070274 0.000292 0.385661
0.070963 0.000292 0.384912 255 0 47 0.070963 0.000292 0.384912
0.071666 0.000293 0.384256 250 0 9 0.071666 0.000293 0.384256
0.072432 0.000293 0.383943 255 0 17 0.072432 0.000293 0.383943
0.073196 0.000294 0.383631 255 0 26 0.073196 0.000294 0.383631
0.073978 0.000295 0.383412 255 0 54 0.073978 0.000295 0.383412
0.074752 0.000296 0.383162 244 0 35 0.074752 0.000296 0.383162
0.075465 0.000296 0.382600 251 0 44 0.075465 0.000296 0.382600
0.076275 0.000297 0.382538 255 0 46 0.076275 0.000297 0.382538
0.077016 0.000298 0.382132 255 0 52 0.077016 0.000298 0.382132
0.077794 0.000299 0.381913 255 0 37 0.077794 0.000299 0.381913
0.078635 0.000300 0.382007 253 0 27 0.078635 0.000300 0.382007
0.079406 0.000301 0.381757 255 0 33 0.079406 0.000301 0.381757
0.080235 0.000302 0.381788 255 0 43 0.080235 0.000302 0.381788
0.081039 0.000304 0.381694 254 0 44 0.081039 0.000304 0.381694
0.081842 0.000305 0.381601 255 0 45 0.081842 0.000305 0.381601
0.082685 0.000306 0.381694 252 0 36 0.082685 0.000306 0.381694
0.083475 0.000307 0.381538 253 0 24 0.083475 0.000307 0.381538
0.084286 0.000308 0.381476 255 0 27 0.084286 0.000308 0.381476
0.085110 0.000309 0.381476 255 0 50 0.085110 0.000309 0.381476
0.085893 0.000310 0.381288 250 0 47 0.085893 0.000310 0.381288
0.086689 0.000311 0.381163 255 0 53 0.086689 0.000311 0.381163
0.087521 0.000313 0.381195 253 0 49 0.087521 0.000313 0.381195
0.088317 0.000314 0.381070 243 0 30 0.088317 0.000314 0.381070
0.089150 0.000315 0.381101 247 0 34 0.089150 0.000315 0.381101
0.089969 0.000316 0.381070 253 0 51 0.089969 0.000316 0.381070
0.090743 0.000317 0.380851 241 0 35 0.090743 0.000317 0.380851
0.091599 0.000319 0.380976 251 0 45 0.091599 0.000319 0.380976
0.178368 0.000584 0.658345 240 0 43 0.178368 0.000584 0.658345
0.090699 0.000269 0.255410 149 149 151 0.090699 0.000269 0.255410
0.058704 0.001122 0.396562 252 0 22 0.058704 0.001122 0.396562
0.059315 0.001118 0.395001 255 0 28 0.059315 0.001118 0.395001
0.059885 0.001114 0.393220 255 0 25 0.059885 0.001114 0.393220
0.060603 0.001113 0.392439 253 0 19 0.060603 0.001113 0.392439
0.061318 0.001112 0.391658 255 0 15 0.061318 0.001112 0.391658
0.062020 0.001110 0.390815 254 0 11 0.062020 0.001110 0.390815
0.062784 0.001110 0.390378 252 0 9 0.062784 0.001110 0.390378
0.063547 0.001110 0.389941 253 0 16 0.063547 0.001110 0.389941
0.064318 0.001110 0.389566 255 0 11 0.064318 0.001110 0.389566
0.065082 0.001110 0.389160 255 0 11 0.065082 0.001110 0.389160
0.065782 0.001109 0.388379 254 0 0 0.065782 0.001109 0.388379
0.066559 0.001109 0.388066 255 0 11 0.066559 0.001109 0.388066
0.067281 0.001108 0.387442 247 0 2 0.067281 0.001108 0.387442
0.068028 0.001108 0.386973 255 0 30 0.068028 0.001108 0.386973
0.068801 0.001108 0.386661 253 0 17 0.068801 0.001108 0.386661
0.069511 0.001107 0.386005 255 0 20 0.069511 0.001107 0.386005
0.070304 0.001108 0.385817 253 0 8 0.070304 0.001108 0.385817
0.070999 0.001107 0.385099 252 0 9 0.070999 0.001107 0.385099
0.071702 0.001106 0.384443 255 0 2 0.071702 0.001106 0.384443
0.072468 0.001106 0.384131 255 0 2 0.072468 0.001106 0.384131
0.073233 0.001106 0.383818 252 0 0 0.073233 0.001106 0.383818
0.074015 0.001107 0.383600 253 0 13 0.074015 0.001107 0.383600
0.074790 0.001107 0.383350 253 0 13 0.074790 0.001107 0.383350
0.075497 0.001107 0.382756 249 0 31 0.075497 0.001107 0.382756
0.076314 0.001108 0.382725 255 0 39 0.076314 0.001108 0.382725
0.077055 0.001108 0.382319 255 0 35 0.077055 0.001108 0.382319
0.077827 0.001108 0.382069 255 0 19 0.077827 0.001108 0.382069
0.078669 0.001110 0.382163 255 0 15 0.078669 0.001110 0.382163
0.079440 0.001110 0.381913 252 0 10 0.079440 0.001110 0.381913
0.080263 0.001112 0.381913 255 0 15 0.080263 0.001112 0.381913
0.081073 0.001113 0.381851 255 0 28 0.081073 0.001113 0.381851
0.081870 0.001114 0.381726 254 0 26 0.081870 0.001114 0.381726
0.082714 0.001115 0.381819 252 0 35 0.082714 0.001115 0.381819
0.083504 0.001116 0.381663 249 0 27 0.083504 0.001116 0.381663
0.084321 0.001117 0.381632 255 0 34 0.084321 0.001117 0.381632
0.085146 0.001119 0.381632 252 0 32 0.085146 0.001119 0.381632
0.085929 0.001119 0.381445 252 0 43 0.085929 0.001119 0.381445
0.086726 0.001120 0.381320 250 0 41 0.086726 0.001120 0.381320
0.087558 0.001122 0.381351 247 0 50 0.087558 0.001122 0.381351
0.088355 0.001123 0.381226 245 0 37 0.088355 0.001123 0.381226
0.089181 0.001124 0.381226 253 0 45 0.089181 0.001124 0.381226
0.090000 0.001126 0.381195 241 0 29 0.090000 0.001126 0.381195
0.090782 0.001126 0.381007 241 0 34 0.090782 0.001126 0.381007
0.091638 0.001128 0.381132 239 0 31 0.091638 0.001128 0.381132
0.164084 0.001877 0.625798 239 0 27 0.164084 0.001877 0.625798
0.178879 0.001991 0.660219 240 0 47 0.178879 0.001991 0.660219
0.058723 0.001960 0.396687 255 0 16 0.058723 0.001960 0.396687
0.059353 0.001954 0.395250 255 0 36 0.059353 0.001954 0.395250
0.059920 0.001946 0.393439 255 0 30 0.059920 0.001946 0.393439
0.060648 0.001943 0.392720 252 0 24 0.060648 0.001943 0.392720
0.061349 0.001940 0.391846 255 0 17 0.061349 0.001940 0.391846
0.062056 0.001937 0.391034 254 0 25 0.062056 0.001937 0.391034
0.062815 0.001936 0.390565 255 0 28 0.062815 0.001936 0.390565
0.063604 0.001935 0.390284 255 0 22 0.063604 0.001935 0.390284
0.064370 0.001935 0.389878 255 0 5 0.064370 0.001935 0.389878
0.065146 0.001934 0.389534 245 0 0 0.065146 0.001934 0.389534
0.065847 0.001931 0.388754 255 0 0 0.065847 0.001931 0.388754
0.066630 0.001931 0.388472 251 0 0 0.066630 0.001931 0.388472
0.067336 0.001929 0.387754 253 0 0 0.067336 0.001929 0.387754
0.068067 0.001927 0.387192 249 0 8 0.068067 0.001927 0.387192
0.068835 0.001926 0.386848 255 0 31 0.068835 0.001926 0.386848
0.069551 0.001924 0.386223 253 0 25 0.069551 0.001924 0.386223
0.070345 0.001925 0.386036 255 0 21 0.070345 0.001925 0.386036
0.071040 0.001922 0.385318 255 0 4 0.071040 0.001922 0.385318
0.071744 0.001920 0.384662 252 0 0 0.071744 0.001920 0.384662
0.072516 0.001920 0.384381 255 0 1 0.072516 0.001920 0.384381
0.073276 0.001920 0.384037 255 0 10 0.073276 0.001920 0.384037
0.074064 0.001920 0.383850 254 0 14 0.074064 0.001920 0.383850
0.074840 0.001920 0.383600 254 0 14 0.074840 0.001920 0.383600
0.075541 0.001918 0.382975 249 0 13 0.075541 0.001918 0.382975
0.076365 0.001920 0.382975 252 0 19 0.076365 0.001920 0.382975
0.077107 0.001919 0.382569 255 0 28 0.077107 0.001919 0.382569
0.077873 0.001919 0.382288 255 0 28 0.077873 0.001919 0.382288
0.078702 0.001920 0.382319 255 0 29 0.078702 0.001920 0.382319
0.079480 0.001921 0.382100 249 0 24 0.079480 0.001921 0.382100
0.080304 0.001922 0.382100 255 0 25 0.080304 0.001922 0.382100
0.081114 0.001923 0.382038 253 0 22 0.081114 0.001923 0.382038
0.081911 0.001924 0.381913 254 0 24 0.081911 0.001924 0.381913
0.082756 0.001926 0.382007 253 0 31 0.082756 0.001926 0.382007
0.083539 0.001926 0.381819 247 0 16 0.083539 0.001926 0.381819
0.084350 0.001927 0.381757 248 0 17 0.084350 0.001927 0.381757
0.085182 0.001929 0.381788 249 0 4 0.085182 0.001929 0.381788
0.085959 0.001929 0.381569 249 0 1 0.085959 0.001929 0.381569
0.086755 0.001930 0.381445 254 0 6 0.086755 0.001930 0.381445
0.087595 0.001932 0.381507 240 0 19 0.087595 0.001932 0.381507
0.088393 0.001933 0.381382 241 0 24 0.088393 0.001933 0.381382
0.089226 0.001934 0.381413 234 0 17 0.089226 0.001934 0.381413
0.090045 0.001936 0.381382 237 0 20 0.090045 0.001936 0.381382
0.090828 0.001936 0.381195 235 0 20 0.090828 0.001936 0.381195
0.091685 0.001939 0.381320 231 0 16 0.091685 0.001939 0.381320
0.058794 0.002800 0.397156 251 0 27 0.058794 0.002800 0.397156
0.059387 0.002790 0.395469 255 0 33 0.059387 0.002790 0.395469
0.059959 0.002778 0.393689 255 0 26 0.059959 0.002778 0.393689
0.060683 0.002774 0.392939 252 0 20 0.060683 0.002774 0.392939
0.061379 0.002769 0.392033 253 0 12 0.061379 0.002769 0.392033
0.062082 0.002764 0.391190 255 0 12 0.062082 0.002764 0.391190
0.062847 0.002762 0.390753 255 0 12 0.062847 0.002762 0.390753
0.063635 0.002761 0.390471 248 0 0 0.063635 0.002761 0.390471
0.064402 0.002760 0.390065 255 0 0 0.064402 0.002760 0.390065
0.065179 0.002758 0.389722 255 0 0 0.065179 0.002758 0.389722
0.065880 0.002754 0.388941 255 0 0 0.065880 0.002754 0.388941
0.066663 0.002753 0.388660 254 0 1 0.066663 0.002753 0.388660
0.067375 0.002750 0.387973 255 0 2 0.067375 0.002750 0.387973
0.068102 0.002747 0.387379 255 0 22 0.068102 0.002747 0.387379
0.068870 0.002746 0.387036 252 0 23 0.068870 0.002746 0.387036
0.069592 0.002743 0.386442 255 0 25 0.069592 0.002743 0.386442
0.070386 0.002743 0.386255 251 0 12 0.070386 0.002743 0.386255
0.071087 0.002739 0.385568 253 0 0 0.071087 0.002739 0.385568
0.071786 0.002736 0.384880 253 0 0 0.071786 0.002736 0.384880
0.072565 0.002735 0.384631 255 0 0 0.072565 0.002735 0.384631
0.073331 0.002734 0.384318 253 0 0 0.073331 0.002734 0.384318
0.074114 0.002734 0.384100 255 0 3 0.074114 0.002734 0.384100
0.074890 0.002734 0.383850 252 0 0 0.074890 0.002734 0.383850
0.075592 0.002731 0.383225 253 0 12 0.075592 0.002731 0.383225
0.076416 0.002732 0.383225 255 0 23 0.076416 0.002732 0.383225
0.077158 0.002731 0.382819 255 0 25 0.077158 0.002731 0.382819
0.077919 0.002730 0.382507 255 0 24 0.077919 0.002730 0.382507
0.078742 0.002732 0.382507 255 0 20 0.078742 0.002732 0.382507
0.079527 0.002732 0.382319 255 0 20 0.079527 0.002732 0.382319
0.080338 0.002733 0.382257 251 0 9 0.080338 0.002733 0.382257
0.081155 0.002734 0.382225 255 0 20 0.081155 0.002734 0.382225
0.081953 0.002735 0.382100 248 0 10 0.081953 0.002735 0.382100
0.082791 0.002737 0.382163 255 0 29 0.082791 0.002737 0.382163
0.083582 0.002737 0.382007 254 0 32 0.083582 0.002737 0.382007
0.084379 0.002738 0.381882 250 0 29 0.084379 0.002738 0.381882
0.085226 0.002740 0.381976 246 0 13 0.085226 0.002740 0.381976
0.086002 0.002740 0.381757 244 0 10 0.086002 0.002740 0.381757
0.086793 0.002741 0.381601 245 0 11 0.086793 0.002741 0.381601
0.087633 0.002743 0.381663 238 0 12 0.087633 0.002743 0.381663
0.088438 0.002744 0.381569 238 0 18 0.088438 0.002744 0.381569
0.089264 0.002745 0.381569 238 0 18 0.089264 0.002745 0.381569
0.090091 0.002747 0.381569 239 0 24 0.090091 0.002747 0.381569
0.090874 0.002747 0.381382 229 0 4 0.090874 0.002747 0.381382
0.091732 0.002750 0.381507 244 0 19 0.091732 0.002750 0.381507
0.058832 0.003641 0.397406 252 0 24 0.058832 0.003641 0.397406
0.059440 0.003628 0.395813 255 0 32 0.059440 0.003628 0.395813
0.059998 0.003612 0.393939 255 0 9 0.059998 0.003612 0.393939
0.060722 0.003606 0.393189 255 0 7 0.060722 0.003606 0.393189
0.061405 0.003598 0.392189 254 0 0 0.061405 0.003598 0.392189
0.062118 0.003592 0.391409 255 0 7 0.062118 0.003592 0.391409
0.062883 0.003590 0.390971 251 0 0 0.062883 0.003590 0.390971
0.063677 0.003589 0.390721 253 0 0 0.063677 0.003589 0.390721
0.064445 0.003586 0.390315 255 0 6 0.064445 0.003586 0.390315
0.065222 0.003584 0.389972 250 0 1 0.065222 0.003584 0.389972
0.065923 0.003578 0.389191 255 0 14 0.065923 0.003578 0.389191
0.066713 0.003578 0.388941 254 0 5 0.066713 0.003578 0.388941
0.067415 0.003572 0.388191 254 0 5 0.067415 0.003572 0.388191
0.068141 0.003568 0.387598 250 0 4 0.068141 0.003568 0.387598
0.068910 0.003566 0.387254 255 0 13 0.068910 0.003566 0.387254
0.069655 0.003563 0.386786 253 0 10 0.069655 0.003563 0.386786
0.070439 0.003562 0.386536 255 0 18 0.070439 0.003562 0.386536
0.071169 0.003559 0.386005 252 0 0 0.071169 0.003559 0.386005
0.071863 0.003554 0.385286 250 0 0 0.071863 0.003554 0.385286
0.072649 0.003553 0.385068 253 0 0 0.072649 0.003553 0.385068
0.073392 0.003551 0.384631 253 0 0 0.073392 0.003551 0.384631
0.074163 0.003550 0.384349 255 0 0 0.074163 0.003550 0.384349
0.074934 0.003548 0.384068 252 0 0 0.074934 0.003548 0.384068
0.075637 0.003544 0.383444 255 0 13 0.075637 0.003544 0.383444
0.076467 0.003546 0.383475 254 0 18 0.076467 0.003546 0.383475
0.077204 0.003544 0.383038 255 0 21 0.077204 0.003544 0.383038
0.077965 0.003542 0.382725 253 0 18 0.077965 0.003542 0.382725
0.078795 0.003544 0.382756 255 0 15 0.078795 0.003544 0.382756
0.079574 0.003544 0.382538 252 0 11 0.079574 0.003544 0.382538
0.080385 0.003545 0.382475 255 0 1 0.080385 0.003545 0.382475
0.081203 0.003546 0.382444 253 0 0 0.081203 0.003546 0.382444
0.081995 0.003546 0.382288 255 0 4 0.081995 0.003546 0.382288
0.082840 0.003549 0.382382 255 0 21 0.082840 0.003549 0.382382
0.083631 0.003549 0.382225 250 0 17 0.083631 0.003549 0.382225
0.084436 0.003550 0.382132 255 0 22 0.084436 0.003550 0.382132
0.085276 0.003552 0.382194 244 0 8 0.085276 0.003552 0.382194
0.086053 0.003552 0.381976 247 0 22 0.086053 0.003552 0.381976
0.086858 0.003553 0.381882 246 0 21 0.086858 0.003553 0.381882
0.087699 0.003555 0.381944 247 0 22 0.087699 0.003555 0.381944
0.088490 0.003555 0.381788 239 0 21 0.088490 0.003555 0.381788
0.089302 0.003557 0.381726 239 0 21 0.089302 0.003557 0.381726
0.090130 0.003558 0.381726 240 0 31 0.090130 0.003558 0.381726
0.090913 0.003559 0.381538 234 0 13 0.090913 0.003559 0.381538
0.091771 0.003562 0.381663 236 0 16 0.091771 0.003562 0.381663
0.070701 0.006168 0.548522 255 0 57 0.070701 0.006168 0.548522
0.058866 0.004483 0.397624 248 0 13 0.058866 0.004483 0.397624
0.059479 0.004466 0.396063 251 0 2 0.059479 0.004466 0.396063
0.060061 0.004448 0.394345 255 0 0 0.060061 0.004448 0.394345
0.060777 0.004440 0.393533 255 0 0 0.060777 0.004440 0.393533
0.061484 0.004432 0.392689 252 0 0 0.061484 0.004432 0.392689
0.062189 0.004424 0.391846 255 0 11 0.062189 0.004424 0.391846
0.062970 0.004422 0.391502 253 0 3 0.062970 0.004422 0.391502
0.063740 0.004418 0.391096 255 0 11 0.063740 0.004418 0.391096
0.064488 0.004414 0.390565 254 0 21 0.064488 0.004414 0.390565
0.065265 0.004411 0.390222 252 0 19 0.065265 0.004411 0.390222
0.065972 0.004404 0.389472 255 0 29 0.065972 0.004404 0.389472
0.066762 0.004403 0.389222 253 0 11 0.066762 0.004403 0.389222
0.067465 0.004396 0.388472 255 0 14 0.067465 0.004396 0.388472
0.068187 0.004390 0.387848 251 0 5 0.068187 0.004390 0.387848
0.068950 0.004388 0.387473 255 0 15 0.068950 0.004388 0.387473
0.069719 0.004385 0.387129 255 0 17 0.069719 0.004385 0.387129
0.070497 0.004384 0.386848 255 0 18 0.070497 0.004384 0.386848
0.071251 0.004381 0.386442 251 0 0 0.071251 0.004381 0.386442
0.071940 0.004374 0.385693 251 0 0 0.071940 0.004374 0.385693
0.072733 0.004373 0.385505 254 0 0 0.072733 0.004373 0.385505
0.073459 0.004369 0.384974 253 0 0 0.073459 0.004369 0.384974
0.074207 0.004366 0.384568 255 0 0 0.074207 0.004366 0.384568
0.074979 0.004364 0.384287 254 0 0 0.074979 0.004364 0.384287
0.075681 0.004359 0.383662 254 0 15 0.075681 0.004359 0.383662
0.076506 0.004360 0.383662 255 0 22 0.076506 0.004360 0.383662
0.077250 0.004357 0.383256 253 0 19 0.077250 0.004357 0.383256
0.078011 0.004355 0.382944 253 0 9 0.078011 0.004355 0.382944
0.078842 0.004358 0.382975 255 0 11 0.078842 0.004358 0.382975
0.079621 0.004357 0.382756 249 0 3 0.079621 0.004357 0.382756
0.080433 0.004358 0.382694 255 0 3 0.080433 0.004358 0.382694
0.081251 0.004359 0.382663 255 0 1 0.081251 0.004359 0.382663
0.082043 0.004359 0.382507 250 0 14 0.082043 0.004359 0.382507
0.082882 0.004362 0.382569 253 0 26 0.082882 0.004362 0.382569
0.083681 0.004362 0.382444 246 0 18 0.083681 0.004362 0.382444
0.084493 0.004363 0.382382 245 0 17 0.084493 0.004363 0.382382
0.085341 0.004366 0.382475 252 0 21 0.085341 0.004366 0.382475
0.086125 0.004366 0.382288 252 0 13 0.086125 0.004366 0.382288
0.086924 0.004366 0.382163 242 0 4 0.086924 0.004366 0.382163
0.087780 0.004370 0.382288 247 0 16 0.087780 0.004370 0.382288
0.088550 0.004369 0.382038 239 0 0 0.088550 0.004369 0.382038
0.089355 0.004370 0.381944 241 0 0 0.089355 0.004370 0.381944
0.090176 0.004371 0.381913 237 0 0 0.090176 0.004371 0.381913
0.090967 0.004371 0.381757 240 0 2 0.090967 0.004371 0.381757
0.091825 0.004375 0.381882 232 0 0 0.091825 0.004375 0.381882
0.070731 0.007328 0.548740 255 0 51 0.070731 0.007328 0.548740
0.058890 0.005324 0.397781 255 0 0 0.058890 0.005324 0.397781
0.059503 0.005305 0.396219 255 0 0 0.059503 0.005305 0.396219
0.060086 0.005283 0.394501 253 0 0 0.060086 0.005283 0.394501
0.060798 0.005273 0.393657 255 0 0 0.060798 0.005273 0.393657
0.061510 0.005264 0.392845 248 0 0 0.061510 0.005264 0.392845
0.062215 0.005254 0.392002 255 0 15 0.062215 0.005254 0.392002
0.063001 0.005251 0.391690 254 0 14 0.063001 0.005251 0.391690
0.063777 0.005248 0.391315 255 0 32 0.063777 0.005248 0.391315
0.064525 0.005242 0.390784 255 0 26 0.064525 0.005242 0.390784
0.065303 0.005239 0.390440 247 0 18 0.065303 0.005239 0.390440
0.066016 0.005231 0.389722 255 0 31 0.066016 0.005231 0.389722
0.066812 0.005230 0.389503 251 0 29 0.066812 0.005230 0.389503
0.067515 0.005221 0.388754 255 0 32 0.067515 0.005221 0.388754
0.068232 0.005214 0.388098 254 0 25 0.068232 0.005214 0.388098
0.068991 0.005210 0.387692 253 0 18 0.068991 0.005210 0.387692
0.069776 0.005208 0.387442 255 0 22 0.069776 0.005208 0.387442
0.070556 0.005206 0.387161 255 0 19 0.070556 0.005206 0.387161
0.071328 0.005204 0.386848 254 0 7 0.071328 0.005204 0.386848
0.072012 0.005195 0.386067 252 0 5 0.072012 0.005195 0.386067
0.072805 0.005194 0.385880 254 0 8 0.072805 0.005194 0.385880
0.073514 0.005187 0.385255 255 0 9 0.073514 0.005187 0.385255
0.074245 0.005182 0.384755 255 0 14 0.074245 0.005182 0.384755
0.075017 0.005180 0.384474 253 0 8 0.075017 0.005180 0.384474
0.075720 0.005174 0.383850 255 0 18 0.075720 0.005174 0.383850
0.076545 0.005175 0.383850 253 0 2 0.076545 0.005175 0.383850
0.077289 0.005172 0.383444 254 0 4 0.077289 0.005172 0.383444
0.078044 0.005169 0.383100 255 0 15 0.078044 0.005169 0.383100
0.078882 0.005171 0.383162 255 0 24 0.078882 0.005171 0.383162
0.079669 0.005171 0.382975 247 0 13 0.079669 0.005171 0.382975
0.080474 0.005171 0.382881 255 0 24 0.080474 0.005171 0.382881
0.081306 0.005174 0.382913 253 0 20 0.081306 0.005174 0.382913
0.082092 0.005173 0.382725 253 0 20 0.082092 0.005173 0.382725
0.082932 0.005176 0.382788 248 0 19 0.082932 0.005176 0.382788
0.083731 0.005176 0.382663 246 0 17 0.083731 0.005176 0.382663
0.084557 0.005178 0.382663 248 0 19 0.084557 0.005178 0.382663
0.085405 0.005181 0.382756 245 0 16 0.085405 0.005181 0.382756
0.086219 0.005182 0.382694 248 0 22 0.086219 0.005182 0.382694
0.087018 0.005183 0.382569 243 0 17 0.087018 0.005183 0.382569
0.087875 0.005187 0.382694 238 0 9 0.087875 0.005187 0.382694
0.088631 0.005184 0.382382 239 0 9 0.088631 0.005184 0.382382
0.089416 0.005184 0.382194 235 0 5 0.089416 0.005184 0.382194
0.090237 0.005186 0.382163 239 0 0 0.090237 0.005186 0.382163
0.091029 0.005186 0.382007 238 0 0 0.091029 0.005186 0.382007
0.091895 0.005190 0.382163 234 0 0 0.091895 0.005190 0.382163
0.058924 0.006167 0.397999 255 0 0 0.058924 0.006167 0.397999
0.059552 0.006146 0.396531 255 0 0 0.059552 0.006146 0.396531
0.060154 0.006123 0.394938 254 0 0 0.060154 0.006123 0.394938
0.060857 0.006110 0.394032 252 0 0 0.060857 0.006110 0.394032
0.061585 0.006101 0.393314 253 0 0 0.061585 0.006101 0.393314
0.062296 0.006090 0.392502 255 0 12 0.062296 0.006090 0.392502
0.063083 0.006087 0.392189 248 0 5 0.063083 0.006087 0.392189
0.063834 0.006080 0.391658 253 0 29 0.063834 0.006080 0.391658
0.064563 0.006071 0.391002 252 0 32 0.064563 0.006071 0.391002
0.065341 0.006068 0.390659 255 0 37 0.065341 0.006068 0.390659
0.066060 0.006059 0.389972 254 0 34 0.066060 0.006059 0.389972
0.066862 0.006057 0.389784 252 0 20 0.066862 0.006057 0.389784
0.067571 0.006048 0.389066 255 0 27 0.067571 0.006048 0.389066
0.068283 0.006039 0.388379 254 0 16 0.068283 0.006039 0.388379
0.069043 0.006034 0.387973 251 0 0 0.069043 0.006034 0.387973
0.069829 0.006032 0.387723 255 0 1 0.069829 0.006032 0.387723
0.070608 0.006030 0.387442 255 0 0 0.070608 0.006030 0.387442
0.071382 0.006026 0.387129 255 0 4 0.071382 0.006026 0.387129
0.072060 0.006016 0.386317 255 0 2 0.072060 0.006016 0.386317
0.072854 0.006015 0.386130 250 0 11 0.072854 0.006015 0.386130
0.073570 0.006007 0.385536 251 0 4 0.073570 0.006007 0.385536
0.074295 0.006001 0.385005 254 0 6 0.074295 0.006001 0.385005
0.075067 0.005998 0.384724 249 0 0 0.075067 0.005998 0.384724
0.075765 0.005990 0.384068 255 0 0 0.075765 0.005990 0.384068
0.076591 0.005992 0.384068 252 0 0 0.076591 0.005992 0.384068
0.077335 0.005987 0.383662 252 0 0 0.077335 0.005987 0.383662
0.078085 0.005983 0.383287 255 0 21 0.078085 0.005983 0.383287
0.078923 0.005986 0.383350 255 0 36 0.078923 0.005986 0.383350
0.079716 0.005986 0.383194 244 0 24 0.079716 0.005986 0.383194
0.080529 0.005987 0.383131 251 0 26 0.080529 0.005987 0.383131
0.081361 0.005989 0.383162 252 0 17 0.081361 0.005989 0.383162
0.082148 0.005988 0.382975 252 0 17 0.082148 0.005988 0.382975
0.082988 0.005991 0.383038 252 0 15 0.082988 0.005991 0.383038
0.083794 0.005992 0.382944 244 0 0 0.083794 0.005992 0.382944
0.084622 0.005994 0.382944 255 0 8 0.084622 0.005994 0.382944
0.085477 0.005998 0.383069 246 0 9 0.085477 0.005998 0.383069
0.086291 0.005999 0.383006 246 0 9 0.086291 0.005999 0.383006
0.087084 0.005999 0.382850 244 0 2 0.087084 0.005999 0.382850
0.087949 0.006004 0.383006 240 0 9 0.087949 0.006004 0.383006
0.088706 0.006001 0.382694 239 0 7 0.088706 0.006001 0.382694
0.089491 0.006000 0.382507 237 0 6 0.089491 0.006000 0.382507
0.090313 0.006002 0.382475 235 0 8 0.090313 0.006002 0.382475
0.091105 0.006002 0.382319 237 0 20 0.091105 0.006002 0.382319
0.091987 0.006007 0.382538 237 0 20 0.091987 0.006007 0.382538
0.058939 0.007009 0.398093 254 0 0 0.058939 0.007009 0.398093
0.059586 0.006987 0.396750 254 0 0 0.059586 0.006987 0.396750
0.060180 0.006960 0.395094 255 0 4 0.060180 0.006960 0.395094
0.060887 0.006946 0.394220 247 0 0 0.060887 0.006946 0.394220
0.061611 0.006935 0.393470 251 0 0 0.061611 0.006935 0.393470
0.062327 0.006922 0.392689 255 0 0 0.062327 0.006922 0.392689
0.063120 0.006919 0.392408 252 0 0 0.063120 0.006919 0.392408
0.063872 0.006911 0.391877 255 0 1 0.063872 0.006911 0.391877
0.064601 0.006902 0.391221 252 0 3 0.064601 0.006902 0.391221
0.065379 0.006897 0.390878 253 0 5 0.065379 0.006897 0.390878
0.066104 0.006887 0.390222 253 0 11 0.066104 0.006887 0.390222
0.066907 0.006886 0.390034 255 0 14 0.066907 0.006886 0.390034
0.067616 0.006875 0.389316 251 0 7 0.067616 0.006875 0.389316
0.068334 0.006865 0.388660 255 0 2 0.068334 0.006865 0.388660
0.069100 0.006860 0.388285 247 0 0 0.069100 0.006860 0.388285
0.069887 0.006858 0.388035 255 0 0 0.069887 0.006858 0.388035
0.070662 0.006854 0.387723 254 0 0 0.070662 0.006854 0.387723
0.071435 0.006851 0.387410 255 0 10 0.071435 0.006851 0.387410
0.072115 0.006838 0.386598 251 0 3 0.072115 0.006838 0.386598
0.072909 0.006837 0.386411 251 0 18 0.072909 0.006837 0.386411
0.073631 0.006829 0.385849 252 0 21 0.073631 0.006829 0.385849
0.074351 0.006821 0.385286 254 0 24 0.074351 0.006821 0.385286
0.075130 0.006818 0.385037 255 0 3 0.075130 0.006818 0.385037
0.075841 0.006810 0.384443 254 0 0 0.075841 0.006810 0.384443
0.076668 0.006812 0.384443 252 0 1 0.076668 0.006812 0.384443
0.077425 0.006808 0.384100 250 0 0 0.077425 0.006808 0.384100
0.078169 0.006803 0.383693 255 0 3 0.078169 0.006803 0.383693
0.079015 0.006806 0.383787 255 0 20 0.079015 0.006806 0.383787
0.079789 0.006804 0.383537 243 0 6 0.079789 0.006804 0.383537
0.080590 0.006804 0.383412 253 0 9 0.080590 0.006804 0.383412
0.081423 0.006807 0.383444 255 0 7 0.081423 0.006807 0.383444
0.082217 0.006806 0.383287 254 0 6 0.082217 0.006806 0.383287
0.083051 0.006809 0.383319 252 0 11 0.083051 0.006809 0.383319
0.083872 0.006810 0.383287 248 0 6 0.083872 0.006810 0.383287
0.084700 0.006813 0.383287 244 0 14 0.084700 0.006813 0.383287
0.085549 0.006817 0.383381 247 0 6 0.085549 0.006817 0.383381
0.086364 0.006818 0.383319 245 0 4 0.086364 0.006818 0.383319
0.087158 0.006817 0.383162 245 0 6 0.087158 0.006817 0.383162
0.088030 0.006823 0.383350 243 0 6 0.088030 0.006823 0.383350
0.088795 0.006820 0.383069 243 0 6 0.088795 0.006820 0.383069
0.089574 0.006819 0.382850 238 0 4 0.089574 0.006819 0.382850
0.090396 0.006820 0.382819 238 0 14 0.090396 0.006820 0.382819
0.091189 0.006820 0.382663 238 0 14 0.091189 0.006820 0.382663
0.092080 0.006827 0.382913 235 0 19 0.092080 0.006827 0.382913
-0.127449 0.018342 0.933933 17 22 26 -0.127449 0.018342 0.933933
-0.125480 0.018339 0.933933 17 26 26 -0.125480 0.018339 0.933933
-0.123511 0.018336 0.933933 20 25 29 -0.123511 0.018336 0.933933
0.059001 0.007858 0.398499 255 0 0 0.059001 0.007858 0.398499
0.059649 0.007833 0.397156 255 0 6 0.059649 0.007833 0.397156
0.060272 0.007806 0.395688 255 0 10 0.060272 0.007806 0.395688
0.060961 0.007788 0.394688 248 0 1 0.060961 0.007788 0.394688
0.061701 0.007777 0.394032 255 0 0 0.061701 0.007777 0.394032
0.062413 0.007763 0.393220 254 0 0 0.062413 0.007763 0.393220
0.063207 0.007759 0.392939 253 0 0 0.063207 0.007759 0.392939
0.063935 0.007747 0.392252 250 0 0 0.063935 0.007747 0.392252
0.064639 0.007733 0.391440 247 0 13 0.064639 0.007733 0.391440
0.065418 0.007728 0.391096 252 0 18 0.065418 0.007728 0.391096
0.066148 0.007717 0.390471 250 0 16 0.066148 0.007717 0.390471
0.066951 0.007716 0.390284 252 0 26 0.066951 0.007716 0.390284
0.067667 0.007704 0.389597 253 0 27 0.067667 0.007704 0.389597
0.068380 0.007692 0.388910 249 0 22 0.068380 0.007692 0.388910
0.069152 0.007687 0.388566 250 0 14 0.069152 0.007687 0.388566
0.069939 0.007684 0.388316 254 0 17 0.069939 0.007684 0.388316
0.070720 0.007681 0.388035 244 0 3 0.070720 0.007681 0.388035
0.071495 0.007677 0.387723 255 0 4 0.071495 0.007677 0.387723
0.072169 0.007662 0.386879 255 0 8 0.072169 0.007662 0.386879
0.072976 0.007662 0.386755 251 0 1 0.072976 0.007662 0.386755
0.073699 0.007652 0.386192 255 0 10 0.073699 0.007652 0.386192
0.074414 0.007643 0.385599 250 0 3 0.074414 0.007643 0.385599
0.075193 0.007640 0.385349 251 0 2 0.075193 0.007640 0.385349
0.075935 0.007633 0.384912 255 0 13 0.075935 0.007633 0.384912
0.076751 0.007634 0.384849 255 0 8 0.076751 0.007634 0.384849
0.077528 0.007631 0.384599 255 0 0 0.077528 0.007631 0.384599
0.078260 0.007624 0.384131 250 0 0 0.078260 0.007624 0.384131
0.079113 0.007629 0.384256 255 0 0 0.079113 0.007629 0.384256
0.079876 0.007625 0.383943 245 0 4 0.079876 0.007625 0.383943
0.080658 0.007623 0.383725 255 0 14 0.080658 0.007623 0.383725
0.081492 0.007626 0.383756 248 0 7 0.081492 0.007626 0.383756
0.082286 0.007625 0.383600 246 0 0 0.082286 0.007625 0.383600
0.083121 0.007628 0.383631 250 0 9 0.083121 0.007628 0.383631
0.083949 0.007630 0.383631 247 0 5 0.083949 0.007630 0.383631
0.084778 0.007633 0.383631 245 0 10 0.084778 0.007633 0.383631
0.085628 0.007637 0.383725 251 0 24 0.085628 0.007637 0.383725
0.086451 0.007639 0.383693 239 0 12 0.086451 0.007639 0.383693
0.087231 0.007637 0.383475 237 0 7 0.087231 0.007637 0.383475
0.088111 0.007643 0.383693 238 0 0 0.088111 0.007643 0.383693
0.088870 0.007640 0.383381 248 0 9 0.088870 0.007640 0.383381
0.089649 0.007638 0.383162 238 0 4 0.089649 0.007638 0.383162
0.090473 0.007640 0.383131 237 0 3 0.090473 0.007640 0.383131
0.091274 0.007640 0.383006 228 0 0 0.091274 0.007640 0.383006
0.092173 0.007648 0.383287 233 0 14 0.092173 0.007648 0.383287
0.261468 0.018495 0.920221 228 0 15 0.261468 0.018495 0.920221
0.060410 0.010738 0.492985 116 0 0 0.060410 0.010738 0.492985
0.059035 0.008705 0.398718 253 0 0 0.059035 0.008705 0.398718
0.059697 0.008679 0.397468 255 0 4 0.059697 0.008679 0.397468
0.060316 0.008648 0.395969 255 0 18 0.060316 0.008648 0.395969
0.061007 0.008628 0.394969 248 0 9 0.061007 0.008628 0.394969
0.061747 0.008616 0.394313 252 0 5 0.061747 0.008616 0.394313
0.062454 0.008599 0.393470 255 0 7 0.062454 0.008599 0.393470
0.063249 0.008595 0.393189 250 0 0 0.063249 0.008595 0.393189
0.063972 0.008581 0.392471 255 0 9 0.063972 0.008581 0.392471
0.064682 0.008566 0.391690 247 0 0 0.064682 0.008566 0.391690
0.065461 0.008560 0.391346 255 0 5 0.065461 0.008560 0.391346
0.066214 0.008551 0.390846 252 0 13 0.066214 0.008551 0.390846
0.067017 0.008549 0.390659 255 0 27 0.067017 0.008549 0.390659
0.067761 0.008540 0.390128 247 0 19 0.067761 0.008540 0.390128
0.068470 0.008526 0.389409 255 0 10 0.068470 0.008526 0.389409
0.069254 0.008522 0.389128 248 0 2 0.069254 0.008522 0.389128
0.070020 0.008516 0.388754 248 0 2 0.070020 0.008516 0.388754
0.070785 0.008509 0.388379 255 0 16 0.070785 0.008509 0.388379
0.071554 0.008504 0.388035 249 0 0 0.071554 0.008504 0.388035
0.072235 0.008488 0.387223 254 0 1 0.072235 0.008488 0.387223
0.073043 0.008488 0.387098 253 0 0 0.073043 0.008488 0.387098
0.073760 0.008477 0.386505 253 0 0 0.073760 0.008477 0.386505
0.074482 0.008467 0.385942 252 0 0 0.074482 0.008467 0.385942
0.075256 0.008463 0.385661 250 0 0 0.075256 0.008463 0.385661
0.076024 0.008458 0.385349 255 0 0 0.076024 0.008458 0.385349
0.076840 0.008459 0.385286 252 0 0 0.076840 0.008459 0.385286
0.077631 0.008457 0.385099 255 0 0 0.077631 0.008457 0.385099
0.078358 0.008449 0.384599 251 0 0 0.078358 0.008449 0.384599
0.079212 0.008454 0.384724 255 0 1 0.079212 0.008454 0.384724
0.079956 0.008447 0.384318 247 0 26 0.079956 0.008447 0.384318
0.080712 0.008442 0.383975 245 0 17 0.080712 0.008442 0.383975
0.081554 0.008446 0.384037 253 0 25 0.081554 0.008446 0.384037
0.082349 0.008445 0.383881 244 0 0 0.082349 0.008445 0.383881
0.083191 0.008448 0.383943 252 0 0 0.083191 0.008448 0.383943
0.084020 0.008451 0.383943 255 0 4 0.084020 0.008451 0.383943
0.084856 0.008454 0.383975 237 0 0 0.084856 0.008454 0.383975
0.085707 0.008459 0.384068 242 0 15 0.085707 0.008459 0.384068
0.086531 0.008460 0.384037 247 0 20 0.086531 0.008460 0.384037
0.087312 0.008458 0.383818 240 0 23 0.087312 0.008458 0.383818
0.088193 0.008466 0.384037 234 0 13 0.088193 0.008466 0.384037
0.088952 0.008461 0.383725 238 0 18 0.088952 0.008461 0.383725
0.089718 0.008458 0.383444 238 0 14 0.089718 0.008458 0.383444
0.090542 0.008460 0.383412 234 0 2 0.090542 0.008460 0.383412
0.091343 0.008460 0.383287 228 0 0 0.091343 0.008460 0.383287
0.092243 0.008468 0.383568 229 0 4 0.092243 0.008468 0.383568
0.091240 0.005788 0.256878 156 129 136 0.091240 0.005788 0.256878
0.091817 0.005791 0.256878 81 53 60 0.091817 0.005791 0.256878
0.059765 0.009529 0.397905 255 0 3 0.059765 0.009529 0.397905
0.060371 0.009493 0.396312 255 0 0 0.060371 0.009493 0.396312
0.061062 0.009471 0.395313 246 0 3 0.061062 0.009471 0.395313
0.061793 0.009456 0.394595 255 0 1 0.061793 0.009456 0.394595
0.062501 0.009437 0.393751 255 0 0 0.062501 0.009437 0.393751
0.063291 0.009432 0.393439 255 0 0 0.063291 0.009432 0.393439
0.064020 0.009417 0.392752 250 0 0 0.064020 0.009417 0.392752
0.064725 0.009400 0.391940 249 0 0 0.064725 0.009400 0.391940
0.065505 0.009394 0.391596 255 0 5 0.065505 0.009394 0.391596
0.066284 0.009388 0.391252 255 0 12 0.066284 0.009388 0.391252
0.067089 0.009385 0.391065 254 0 16 0.067089 0.009385 0.391065
0.067856 0.009377 0.390659 254 0 16 0.067856 0.009377 0.390659
0.068555 0.009361 0.389878 249 0 1 0.068555 0.009361 0.389878
0.069356 0.009359 0.389691 253 0 7 0.069356 0.009359 0.389691
0.070107 0.009349 0.389222 247 0 1 0.070107 0.009349 0.389222
0.070850 0.009340 0.388722 251 0 2 0.070850 0.009340 0.388722
0.071626 0.009334 0.388410 255 0 5 0.071626 0.009334 0.388410
0.072302 0.009316 0.387567 255 0 5 0.072302 0.009316 0.387567
0.073116 0.009316 0.387473 252 0 0 0.073116 0.009316 0.387473
0.073828 0.009304 0.386848 255 0 1 0.073828 0.009304 0.386848
0.074545 0.009292 0.386255 255 0 1 0.074545 0.009292 0.386255
0.075320 0.009287 0.385974 255 0 0 0.075320 0.009287 0.385974
0.076094 0.009283 0.385693 251 0 0 0.076094 0.009283 0.385693
0.076905 0.009283 0.385599 252 0 0 0.076905 0.009283 0.385599
0.077696 0.009281 0.385411 250 0 0 0.077696 0.009281 0.385411
0.078424 0.009271 0.384912 254 0 5 0.078424 0.009271 0.384912
0.079279 0.009277 0.385037 247 0 0 0.079279 0.009277 0.385037
0.080024 0.009269 0.384631 253 0 21 0.080024 0.009269 0.384631
0.080781 0.009264 0.384287 246 0 9 0.080781 0.009264 0.384287
0.081616 0.009267 0.384318 252 0 15 0.081616 0.009267 0.384318
0.082425 0.009267 0.384224 255 0 0 0.082425 0.009267 0.384224
0.083261 0.009270 0.384256 250 0 0 0.083261 0.009270 0.384256
0.084098 0.009274 0.384287 245 0 0 0.084098 0.009274 0.384287
0.084928 0.009276 0.384287 240 0 7 0.084928 0.009276 0.384287
0.085779 0.009281 0.384381 236 0 0 0.085779 0.009281 0.384381
0.086618 0.009285 0.384412 243 0 3 0.086618 0.009285 0.384412
0.087421 0.009284 0.384287 232 0 0 0.087421 0.009284 0.384287
0.088296 0.009292 0.384474 237 0 4 0.088296 0.009292 0.384474
0.089071 0.009288 0.384224 233 0 0 0.089071 0.009288 0.384224
0.089837 0.009284 0.383943 238 0 8 0.089837 0.009284 0.383943
0.090677 0.009288 0.383975 231 0 1 0.090677 0.009288 0.383975
0.091458 0.009285 0.383756 229 0 0 0.091458 0.009285 0.383756
0.092336 0.009293 0.383943 231 0 5 0.092336 0.009293 0.383943
0.091243 0.006340 0.256878 149 130 142 0.091243 0.006340 0.256878
0.091820 0.006343 0.256878 68 48 60 0.091820 0.006343 0.256878
0.087941 0.016658 0.639916 175 0 0 0.087941 0.016658 0.639916
0.059898 0.010392 0.398780 255 0 7 0.059898 0.010392 0.398780
0.060511 0.010354 0.397218 252 0 0 0.060511 0.010354 0.397218
0.061117 0.010315 0.395657 255 0 6 0.061117 0.010315 0.395657
0.061839 0.010297 0.394876 249 0 0 0.061839 0.010297 0.394876
0.062553 0.010278 0.394064 255 0 0 0.062553 0.010278 0.394064
0.063344 0.010272 0.393751 255 0 4 0.063344 0.010272 0.393751
0.064068 0.010255 0.393033 253 0 12 0.064068 0.010255 0.393033
0.064773 0.010236 0.392221 253 0 21 0.064773 0.010236 0.392221
0.065554 0.010229 0.391877 254 0 22 0.065554 0.010229 0.391877
0.066366 0.010227 0.391721 249 0 9 0.066366 0.010227 0.391721
0.067161 0.010223 0.391471 255 0 9 0.067161 0.010223 0.391471
0.067955 0.010219 0.391221 249 0 2 0.067955 0.010219 0.391221
0.068656 0.010200 0.390440 252 0 3 0.068656 0.010200 0.390440
0.069470 0.010199 0.390315 250 0 11 0.069470 0.010199 0.390315
0.070199 0.010186 0.389722 254 0 15 0.070199 0.010186 0.389722
0.070920 0.010172 0.389097 255 0 17 0.070920 0.010172 0.389097
0.071691 0.010165 0.388754 251 0 15 0.071691 0.010165 0.388754
0.072374 0.010147 0.387941 246 0 10 0.072374 0.010147 0.387941
0.073189 0.010147 0.387848 253 0 7 0.073189 0.010147 0.387848
0.073896 0.010132 0.387192 255 0 3 0.073896 0.010132 0.387192
0.074607 0.010118 0.386567 249 0 0 0.074607 0.010118 0.386567
0.075395 0.010115 0.386348 242 0 0 0.075395 0.010115 0.386348
0.076176 0.010110 0.386099 244 0 0 0.076176 0.010110 0.386099
0.076982 0.010110 0.385974 255 0 1 0.076982 0.010110 0.385974
0.077774 0.010107 0.385786 250 0 0 0.077774 0.010107 0.385786
0.078522 0.010099 0.385380 254 0 0 0.078522 0.010099 0.385380
0.079365 0.010103 0.385443 255 0 0 0.079365 0.010103 0.385443
0.080137 0.010099 0.385161 246 0 0 0.080137 0.010099 0.385161
0.080895 0.010092 0.384818 255 0 0 0.080895 0.010092 0.384818
0.081745 0.010097 0.384912 249 0 0 0.081745 0.010097 0.384912
0.082535 0.010095 0.384724 247 0 0 0.082535 0.010095 0.384724
0.083345 0.010095 0.384631 249 0 7 0.083345 0.010095 0.384631
