ply
format ascii 1.0
element vertex 726
property float x
property float y
property float z
property uchar red
property uchar green
property uchar blue
property float nx
property float ny
property float nz
end_header
0.090254 -0.010139 0.378821 255 27 109 0.090254 -0.010139 0.378821
0.091159 -0.010148 0.379164 255 28 110 0.091159 -0.010148 0.379164
0.043322 -0.009174 0.373011 255 124 116 0.043322 -0.009174 0.373011
0.044575 -0.009271 0.376915 255 123 115 0.044575 -0.009271 0.376915
0.045626 -0.009322 0.379008 255 123 124 0.045626 -0.009322 0.379008
0.046442 -0.009325 0.379102 255 120 122 0.046442 -0.009325 0.379102
0.047317 -0.009339 0.379664 255 123 124 0.047317 -0.009339 0.379664
0.048182 -0.009351 0.380133 255 127 129 0.048182 -0.009351 0.380133
0.049090 -0.009370 0.380914 255 130 123 0.049090 -0.009370 0.380914
0.049945 -0.009379 0.381257 255 131 117 0.049945 -0.009379 0.381257
0.050938 -0.009413 0.382631 255 130 115 0.050938 -0.009413 0.382631
0.051912 -0.009443 0.383818 255 120 107 0.051912 -0.009443 0.383818
0.052921 -0.009477 0.385224 255 108 95 0.052921 -0.009477 0.385224
0.053850 -0.009497 0.386005 255 93 97 0.053850 -0.009497 0.386005
0.055096 -0.009571 0.389003 255 100 107 0.055096 -0.009571 0.389003
0.056382 -0.009650 0.392189 255 101 108 0.056382 -0.009650 0.392189
0.057769 -0.009743 0.395969 255 100 106 0.057769 -0.009743 0.395969
0.059370 -0.009869 0.401091 255 100 106 0.059370 -0.009869 0.401091
0.060201 -0.009866 0.400935 255 87 103 0.060201 -0.009866 0.400935
0.060381 -0.009757 0.396500 255 85 101 0.060381 -0.009757 0.396500
0.060199 -0.009593 0.389847 255 84 105 0.060199 -0.009593 0.389847
0.060805 -0.009558 0.388410 255 92 109 0.060805 -0.009558 0.388410
0.061396 -0.009522 0.386911 255 94 105 0.061396 -0.009522 0.386911
0.062117 -0.009506 0.386255 255 89 95 0.062117 -0.009506 0.386255
0.062763 -0.009479 0.385161 255 83 90 0.062763 -0.009479 0.385161
0.063601 -0.009482 0.385255 255 72 97 0.063601 -0.009482 0.385255
0.064440 -0.009484 0.385349 255 69 103 0.064440 -0.009484 0.385349
0.065285 -0.009488 0.385474 255 66 100 0.065285 -0.009488 0.385474
0.066115 -0.009489 0.385505 255 72 90 0.066115 -0.009489 0.385505
0.066907 -0.009485 0.385318 255 49 80 0.066907 -0.009485 0.385318
0.067743 -0.009486 0.385380 255 49 80 0.067743 -0.009486 0.385380
0.068557 -0.009485 0.385318 255 50 85 0.068557 -0.009485 0.385318
0.069343 -0.009480 0.385099 255 49 95 0.069343 -0.009480 0.385099
0.070202 -0.009485 0.385286 255 53 98 0.070202 -0.009485 0.385286
0.070964 -0.009477 0.384943 255 62 96 0.070964 -0.009477 0.384943
0.071732 -0.009469 0.384631 255 75 91 0.071732 -0.009469 0.384631
0.072527 -0.009466 0.384474 255 78 95 0.072527 -0.009466 0.384474
0.073335 -0.009464 0.384381 255 73 98 0.073335 -0.009464 0.384381
0.074094 -0.009456 0.384037 255 64 101 0.074094 -0.009456 0.384037
0.074858 -0.009448 0.383725 255 58 95 0.074858 -0.009448 0.383725
0.075559 -0.009433 0.383100 255 46 88 0.075559 -0.009433 0.383100
0.076352 -0.009430 0.382944 255 52 104 0.076352 -0.009430 0.382944
0.077024 -0.009412 0.382194 255 50 103 0.077024 -0.009412 0.382194
0.077719 -0.009397 0.381569 255 49 95 0.077719 -0.009397 0.381569
0.078444 -0.009385 0.381101 255 59 89 0.078444 -0.009385 0.381101
0.079103 -0.009366 0.380320 255 48 79 0.079103 -0.009366 0.380320
0.079902 -0.009365 0.380226 255 37 68 0.079902 -0.009365 0.380226
0.080636 -0.009355 0.379820 255 37 71 0.080636 -0.009355 0.379820
0.081361 -0.009344 0.379383 255 35 69 0.081361 -0.009344 0.379383
0.082166 -0.009343 0.379321 255 30 67 0.082166 -0.009343 0.379321
0.082944 -0.009339 0.379133 255 30 75 0.082944 -0.009339 0.379133
0.083756 -0.009339 0.379102 255 32 77 0.083756 -0.009339 0.379102
0.084568 -0.009338 0.379071 255 32 84 0.084568 -0.009338 0.379071
0.085360 -0.009335 0.378946 255 32 97 0.085360 -0.009335 0.378946
0.086186 -0.009336 0.378977 255 29 93 0.086186 -0.009336 0.378977
0.087007 -0.009337 0.378977 255 26 92 0.087007 -0.009337 0.378977
0.087805 -0.009335 0.378883 255 24 80 0.087805 -0.009335 0.378883
0.088670 -0.009340 0.379071 255 28 83 0.088670 -0.009340 0.379071
0.089440 -0.009335 0.378852 255 28 97 0.089440 -0.009335 0.378852
0.090299 -0.009339 0.379008 255 33 96 0.090299 -0.009339 0.379008
0.091203 -0.009348 0.379352 255 34 97 0.091203 -0.009348 0.379352
0.044196 -0.008558 0.380539 255 123 115 0.044196 -0.008558 0.380539
0.044630 -0.008487 0.377384 255 116 113 0.044630 -0.008487 0.377384
0.045637 -0.008526 0.379102 255 120 132 0.045637 -0.008526 0.379102
0.046434 -0.008525 0.379039 255 117 130 0.046434 -0.008525 0.379039
0.047278 -0.008532 0.379352 255 124 130 0.047278 -0.008532 0.379352
0.048067 -0.008529 0.379227 255 122 128 0.048067 -0.008529 0.379227
0.048897 -0.008534 0.379414 255 128 118 0.048897 -0.008534 0.379414
0.049674 -0.008529 0.379196 255 129 113 0.049674 -0.008529 0.379196
0.050568 -0.008544 0.379852 255 128 112 0.050568 -0.008544 0.379852
0.051422 -0.008552 0.380195 255 109 90 0.051422 -0.008552 0.380195
0.052483 -0.008593 0.382038 255 102 88 0.052483 -0.008593 0.382038
0.053492 -0.008625 0.383444 255 102 88 0.053492 -0.008625 0.383444
0.054976 -0.008731 0.388160 255 98 98 0.054976 -0.008731 0.388160
0.056243 -0.008800 0.391221 255 97 97 0.056243 -0.008800 0.391221
0.057645 -0.008888 0.395126 255 93 106 0.057645 -0.008888 0.395126
0.059305 -0.009013 0.400654 255 93 106 0.059305 -0.009013 0.400654
0.060145 -0.009011 0.400560 255 87 97 0.060145 -0.009011 0.400560
0.060024 -0.008867 0.394157 255 88 99 0.060024 -0.008867 0.394157
0.059856 -0.008721 0.387629 255 87 98 0.059856 -0.008721 0.387629
0.060590 -0.008707 0.387036 255 87 98 0.060590 -0.008707 0.387036
0.061277 -0.008688 0.386161 255 82 93 0.061277 -0.008688 0.386161
0.062086 -0.008686 0.386067 255 75 98 0.062086 -0.008686 0.386067
0.062676 -0.008654 0.384631 255 70 93 0.062676 -0.008654 0.384631
0.063514 -0.008656 0.384724 255 65 96 0.063514 -0.008656 0.384724
0.064377 -0.008662 0.384974 255 68 97 0.064377 -0.008662 0.384974
0.065253 -0.008669 0.385286 255 68 97 0.065253 -0.008669 0.385286
0.066136 -0.008677 0.385630 255 64 87 0.066136 -0.008677 0.385630
0.066961 -0.008677 0.385630 255 49 71 0.066961 -0.008677 0.385630
0.067819 -0.008682 0.385817 255 50 72 0.067819 -0.008682 0.385817
0.068634 -0.008680 0.385755 255 40 87 0.068634 -0.008680 0.385755
0.069387 -0.008672 0.385349 255 34 81 0.069387 -0.008672 0.385349
0.070213 -0.008672 0.385349 255 45 98 0.070213 -0.008672 0.385349
0.070970 -0.008664 0.384974 255 59 103 0.070970 -0.008664 0.384974
0.071731 -0.008656 0.384631 255 66 104 0.071731 -0.008656 0.384631
0.072527 -0.008653 0.384474 255 64 102 0.072527 -0.008653 0.384474
0.073340 -0.008651 0.384412 255 63 82 0.073340 -0.008651 0.384412
0.074093 -0.008643 0.384037 255 69 82 0.074093 -0.008643 0.384037
0.074864 -0.008637 0.383756 255 65 79 0.074864 -0.008637 0.383756
0.075559 -0.008623 0.383100 255 36 78 0.075559 -0.008623 0.383100
0.076351 -0.008619 0.382944 255 31 88 0.076351 -0.008619 0.382944
0.077024 -0.008603 0.382194 255 32 90 0.077024 -0.008603 0.382194
0.077719 -0.008589 0.381569 255 24 95 0.077719 -0.008589 0.381569
0.078450 -0.008579 0.381132 255 37 85 0.078450 -0.008579 0.381132
0.079109 -0.008562 0.380351 255 32 79 0.079109 -0.008562 0.380351
0.079909 -0.008560 0.380258 255 32 89 0.079909 -0.008560 0.380258
0.080636 -0.008550 0.379820 255 19 85 0.080636 -0.008550 0.379820
0.081361 -0.008541 0.379383 255 21 88 0.081361 -0.008541 0.379383
0.082166 -0.008539 0.379321 255 28 80 0.082166 -0.008539 0.379321
0.082944 -0.008535 0.379133 255 26 70 0.082944 -0.008535 0.379133
0.083756 -0.008535 0.379102 255 25 69 0.083756 -0.008535 0.379102
0.084568 -0.008534 0.379071 255 30 80 0.084568 -0.008534 0.379071
0.085366 -0.008532 0.378977 255 18 79 0.085366 -0.008532 0.378977
0.086193 -0.008533 0.379008 255 15 76 0.086193 -0.008533 0.379008
0.087006 -0.008533 0.378977 255 21 73 0.087006 -0.008533 0.378977
0.087827 -0.008533 0.378977 255 14 72 0.087827 -0.008533 0.378977
0.088684 -0.008537 0.379133 255 15 73 0.088684 -0.008537 0.379133
0.089469 -0.008534 0.378977 253 9 85 0.089469 -0.008534 0.378977
0.090335 -0.008538 0.379164 255 18 95 0.090335 -0.008538 0.379164
0.091241 -0.008546 0.379508 255 16 92 0.091241 -0.008546 0.379508
0.124443 -0.010872 0.482678 255 37 80 0.124443 -0.010872 0.482678
0.044207 -0.007758 0.380632 255 117 115 0.044207 -0.007758 0.380632
0.044648 -0.007695 0.377540 255 111 119 0.044648 -0.007695 0.377540
0.045656 -0.007730 0.379258 255 110 123 0.045656 -0.007730 0.379258
0.046453 -0.007729 0.379196 255 112 125 0.046453 -0.007729 0.379196
0.047297 -0.007735 0.379508 255 112 136 0.047297 -0.007735 0.379508
0.048087 -0.007733 0.379383 255 115 139 0.048087 -0.007733 0.379383
0.048913 -0.007736 0.379539 255 117 132 0.048913 -0.007736 0.379539
0.049695 -0.007732 0.379352 255 116 125 0.049695 -0.007732 0.379352
0.050584 -0.007745 0.379976 255 114 123 0.050584 -0.007745 0.379976
0.051443 -0.007753 0.380351 255 103 97 0.051443 -0.007753 0.380351
0.052496 -0.007789 0.382132 255 103 83 0.052496 -0.007789 0.382132
0.053510 -0.007819 0.383568 255 98 78 0.053510 -0.007819 0.383568
0.054981 -0.007913 0.388191 255 99 79 0.054981 -0.007913 0.388191
0.056238 -0.007974 0.391190 255 99 79 0.056238 -0.007974 0.391190
0.057627 -0.008052 0.395001 255 89 84 0.057627 -0.008052 0.395001
0.059333 -0.008171 0.400842 255 89 84 0.059333 -0.008171 0.400842
0.060065 -0.008155 0.400029 255 91 91 0.060065 -0.008155 0.400029
0.059857 -0.008013 0.393064 255 85 105 0.059857 -0.008013 0.393064
0.059706 -0.007883 0.386661 255 73 99 0.059706 -0.007883 0.386661
0.060399 -0.007865 0.385817 255 73 99 0.060399 -0.007865 0.385817
0.061113 -0.007852 0.385130 255 77 96 0.061113 -0.007852 0.385130
0.061955 -0.007854 0.385255 255 69 86 0.061955 -0.007854 0.385255
0.062585 -0.007830 0.384068 255 69 86 0.062585 -0.007830 0.384068
0.063410 -0.007831 0.384100 255 62 89 0.063410 -0.007831 0.384100
0.064283 -0.007837 0.384412 255 53 98 0.064283 -0.007837 0.384412
0.065179 -0.007846 0.384849 255 52 97 0.065179 -0.007846 0.384849
0.066098 -0.007858 0.385411 255 52 87 0.066098 -0.007858 0.385411
0.066956 -0.007862 0.385599 255 57 68 0.066956 -0.007862 0.385599
0.067830 -0.007868 0.385880 255 58 69 0.067830 -0.007868 0.385880
0.068651 -0.007867 0.385849 255 41 85 0.068651 -0.007867 0.385849
0.069398 -0.007858 0.385411 253 31 76 0.069398 -0.007858 0.385411
0.070224 -0.007858 0.385411 255 49 100 0.070224 -0.007858 0.385411
0.070981 -0.007851 0.385037 255 56 110 0.070981 -0.007851 0.385037
0.071737 -0.007843 0.384662 255 63 104 0.071737 -0.007843 0.384662
0.072533 -0.007840 0.384506 255 68 109 0.072533 -0.007840 0.384506
0.073346 -0.007839 0.384443 255 62 87 0.073346 -0.007839 0.384443
0.074105 -0.007832 0.384100 255 55 80 0.074105 -0.007832 0.384100
0.074869 -0.007826 0.383787 255 59 85 0.074869 -0.007826 0.383787
0.075565 -0.007812 0.383131 255 30 85 0.075565 -0.007812 0.383131
0.076357 -0.007809 0.382975 255 30 88 0.076357 -0.007809 0.382975
0.077030 -0.007794 0.382225 255 27 86 0.077030 -0.007794 0.382225
0.077725 -0.007781 0.381601 255 23 86 0.077725 -0.007781 0.381601
0.078450 -0.007772 0.381132 255 18 81 0.078450 -0.007772 0.381132
0.079109 -0.007756 0.380351 255 19 83 0.079109 -0.007756 0.380351
0.079915 -0.007755 0.380289 255 19 81 0.079915 -0.007755 0.380289
0.080642 -0.007746 0.379852 255 13 85 0.080642 -0.007746 0.379852
0.081368 -0.007737 0.379414 255 17 90 0.081368 -0.007737 0.379414
0.082179 -0.007737 0.379383 255 17 83 0.082179 -0.007737 0.379383
0.082951 -0.007732 0.379164 255 14 73 0.082951 -0.007732 0.379164
0.083769 -0.007732 0.379164 255 14 73 0.083769 -0.007732 0.379164
0.084582 -0.007732 0.379133 255 20 77 0.084582 -0.007732 0.379133
0.085380 -0.007730 0.379039 255 23 78 0.085380 -0.007730 0.379039
0.086207 -0.007731 0.379071 255 26 81 0.086207 -0.007731 0.379071
0.087020 -0.007730 0.379039 255 17 72 0.087020 -0.007730 0.379039
0.087841 -0.007730 0.379039 255 9 65 0.087841 -0.007730 0.379039
0.088706 -0.007734 0.379227 255 6 61 0.088706 -0.007734 0.379227
0.089491 -0.007731 0.379071 255 0 80 0.089491 -0.007731 0.379071
0.090350 -0.007734 0.379227 255 4 87 0.090350 -0.007734 0.379227
0.091263 -0.007742 0.379602 255 12 96 0.091263 -0.007742 0.379602
0.124499 -0.009850 0.482897 255 19 91 0.124499 -0.009850 0.482897
0.170678 -0.012749 0.624954 254 35 78 0.170678 -0.012749 0.624954
0.173387 -0.012849 0.629827 255 36 79 0.173387 -0.012849 0.629827
0.044210 -0.006956 0.380664 255 107 99 0.044210 -0.006956 0.380664
0.044655 -0.006901 0.377603 255 103 112 0.044655 -0.006901 0.377603
0.045671 -0.006933 0.379383 255 111 124 0.045671 -0.006933 0.379383
0.046476 -0.006933 0.379383 255 112 125 0.046476 -0.006933 0.379383
0.047316 -0.006938 0.379664 255 115 121 0.047316 -0.006938 0.379664
0.048107 -0.006936 0.379539 255 117 124 0.048107 -0.006936 0.379539
0.048933 -0.006939 0.379695 255 111 119 0.048933 -0.006939 0.379695
0.049715 -0.006935 0.379508 255 107 119 0.049715 -0.006935 0.379508
0.050605 -0.006947 0.380133 255 105 117 0.050605 -0.006947 0.380133
0.051464 -0.006954 0.380507 255 91 99 0.051464 -0.006954 0.380507
0.052513 -0.006986 0.382257 255 78 77 0.052513 -0.006986 0.382257
0.053518 -0.007011 0.383631 255 78 77 0.053518 -0.007011 0.383631
0.054972 -0.007093 0.388129 255 83 61 0.054972 -0.007093 0.388129
0.056229 -0.007148 0.391127 255 85 63 0.056229 -0.007148 0.391127
0.057618 -0.007218 0.394938 255 80 72 0.057618 -0.007218 0.394938
0.059379 -0.007331 0.401154 255 80 72 0.059379 -0.007331 0.401154
0.060314 -0.007341 0.401685 255 74 79 0.060314 -0.007341 0.401685
0.060423 -0.007251 0.396781 255 70 76 0.060423 -0.007251 0.396781
0.060193 -0.007124 0.389816 255 65 81 0.060193 -0.007124 0.389816
0.060800 -0.007098 0.388379 255 54 85 0.060800 -0.007098 0.388379
0.061346 -0.007065 0.386598 255 54 94 0.061346 -0.007065 0.386598
0.062021 -0.007048 0.385661 255 48 84 0.062021 -0.007048 0.385661
0.062661 -0.007027 0.384537 255 40 76 0.062661 -0.007027 0.384537
0.063451 -0.007024 0.384349 255 38 82 0.063451 -0.007024 0.384349
0.064294 -0.007026 0.384474 255 38 97 0.064294 -0.007026 0.384474
0.065168 -0.007032 0.384787 255 36 95 0.065168 -0.007032 0.384787
0.066098 -0.007043 0.385411 255 37 95 0.066098 -0.007043 0.385411
0.066972 -0.007049 0.385693 255 39 75 0.066972 -0.007049 0.385693
0.067858 -0.007055 0.386036 251 25 61 0.067858 -0.007055 0.386036
0.068673 -0.007054 0.385974 255 23 61 0.068673 -0.007054 0.385974
0.069410 -0.007045 0.385474 255 35 73 0.069410 -0.007045 0.385474
0.070236 -0.007044 0.385474 255 42 93 0.070236 -0.007044 0.385474
0.070987 -0.007037 0.385068 255 36 101 0.070987 -0.007037 0.385068
0.071743 -0.007030 0.384693 255 28 102 0.071743 -0.007030 0.384693
0.072539 -0.007027 0.384537 254 19 92 0.072539 -0.007027 0.384537
0.073352 -0.007026 0.384474 255 33 89 0.073352 -0.007026 0.384474
0.074111 -0.007020 0.384131 255 21 63 0.074111 -0.007020 0.384131
0.074876 -0.007014 0.383818 255 26 68 0.074876 -0.007014 0.383818
0.075571 -0.007002 0.383162 255 17 69 0.075571 -0.007002 0.383162
0.076364 -0.006999 0.383006 255 24 80 0.076364 -0.006999 0.383006
0.077030 -0.006985 0.382225 255 19 75 0.077030 -0.006985 0.382225
0.077732 -0.006974 0.381632 255 7 78 0.077732 -0.006974 0.381632
0.078457 -0.006965 0.381163 255 1 79 0.078457 -0.006965 0.381163
0.079135 -0.006953 0.380476 255 2 81 0.079135 -0.006953 0.380476
0.079935 -0.006951 0.380383 255 0 79 0.079935 -0.006951 0.380383
0.080682 -0.006945 0.380039 255 0 81 0.080682 -0.006945 0.380039
0.081408 -0.006937 0.379602 255 0 80 0.081408 -0.006937 0.379602
0.082220 -0.006936 0.379570 255 0 74 0.082220 -0.006936 0.379570
0.082985 -0.006932 0.379321 255 4 64 0.082985 -0.006932 0.379321
0.083783 -0.006930 0.379227 255 6 66 0.083783 -0.006930 0.379227
0.084603 -0.006930 0.379227 255 12 72 0.084603 -0.006930 0.379227
0.085401 -0.006928 0.379133 255 11 77 0.085401 -0.006928 0.379133
0.086229 -0.006929 0.379164 255 6 72 0.086229 -0.006929 0.379164
0.087049 -0.006929 0.379164 255 0 67 0.087049 -0.006929 0.379164
0.087870 -0.006928 0.379164 255 0 63 0.087870 -0.006928 0.379164
0.088735 -0.006932 0.379352 255 0 63 0.088735 -0.006932 0.379352
0.089520 -0.006929 0.379196 255 3 81 0.089520 -0.006929 0.379196
0.090380 -0.006932 0.379352 255 3 78 0.090380 -0.006932 0.379352
0.091293 -0.006939 0.379727 255 8 84 0.091293 -0.006939 0.379727
0.124209 -0.008803 0.481772 255 8 83 0.124209 -0.008803 0.481772
0.043191 -0.006012 0.371887 255 97 90 0.043191 -0.006012 0.371887
0.044652 -0.006104 0.377571 255 97 90 0.044652 -0.006104 0.377571
0.045686 -0.006136 0.379508 255 98 98 0.045686 -0.006136 0.379508
0.046495 -0.006136 0.379539 255 100 99 0.046495 -0.006136 0.379539
0.047336 -0.006141 0.379820 255 99 102 0.047336 -0.006141 0.379820
0.048127 -0.006138 0.379695 255 104 107 0.048127 -0.006138 0.379695
0.048957 -0.006141 0.379883 255 97 111 0.048957 -0.006141 0.379883
0.049736 -0.006138 0.379664 255 98 99 0.049736 -0.006138 0.379664
0.050626 -0.006148 0.380289 255 93 95 0.050626 -0.006148 0.380289
0.051485 -0.006154 0.380664 255 80 83 0.051485 -0.006154 0.380664
0.052522 -0.006181 0.382319 255 69 76 0.052522 -0.006181 0.382319
0.053523 -0.006202 0.383662 255 70 77 0.053523 -0.006202 0.383662
0.054945 -0.006271 0.387941 255 72 84 0.054945 -0.006271 0.387941
0.056211 -0.006321 0.391002 255 69 82 0.056211 -0.006321 0.391002
0.057595 -0.006382 0.394782 255 60 89 0.057595 -0.006382 0.394782
0.059384 -0.006485 0.401185 255 60 89 0.059384 -0.006485 0.401185
0.060529 -0.006516 0.403122 255 56 85 0.060529 -0.006516 0.403122
0.061113 -0.006487 0.401310 255 48 85 0.061113 -0.006487 0.401310
0.060903 -0.006375 0.394407 255 42 92 0.060903 -0.006375 0.394407
0.061299 -0.006329 0.391565 255 49 94 0.061299 -0.006329 0.391565
0.061673 -0.006282 0.388660 255 58 86 0.061673 -0.006282 0.388660
0.062131 -0.006245 0.386348 255 37 82 0.062131 -0.006245 0.386348
0.062788 -0.006228 0.385318 255 31 76 0.062788 -0.006228 0.385318
0.063565 -0.006223 0.385037 255 21 81 0.063565 -0.006223 0.385037
0.064351 -0.006220 0.384818 255 36 85 0.064351 -0.006220 0.384818
0.065169 -0.006219 0.384787 255 37 86 0.065169 -0.006219 0.384787
0.066045 -0.006224 0.385099 255 42 62 0.066045 -0.006224 0.385099
0.066890 -0.006226 0.385224 255 35 65 0.066890 -0.006226 0.385224
0.067748 -0.006229 0.385411 255 28 58 0.067748 -0.006229 0.385411
0.068567 -0.006228 0.385380 255 18 79 0.068567 -0.006228 0.385380
0.069365 -0.006226 0.385224 255 8 74 0.069365 -0.006226 0.385224
0.070253 -0.006231 0.385568 255 8 74 0.070253 -0.006231 0.385568
0.071027 -0.006226 0.385286 255 13 61 0.071027 -0.006226 0.385286
0.071784 -0.006220 0.384912 255 15 63 0.071784 -0.006220 0.384912
0.072580 -0.006217 0.384755 255 10 55 0.072580 -0.006217 0.384755
0.073376 -0.006215 0.384599 255 21 64 0.073376 -0.006215 0.384599
0.074123 -0.006208 0.384193 255 19 62 0.074123 -0.006208 0.384193
0.074894 -0.006203 0.383912 255 15 63 0.074894 -0.006203 0.383912
0.075590 -0.006193 0.383256 255 4 67 0.075590 -0.006193 0.383256
0.076376 -0.006190 0.383069 255 6 56 0.076376 -0.006190 0.383069
0.077043 -0.006177 0.382288 255 2 52 0.077043 -0.006177 0.382288
0.077738 -0.006166 0.381663 255 2 42 0.077738 -0.006166 0.381663
0.078470 -0.006159 0.381226 255 18 64 0.078470 -0.006159 0.381226
0.079180 -0.006151 0.380695 245 0 44 0.079180 -0.006151 0.380695
0.079974 -0.006148 0.380570 255 0 58 0.079974 -0.006148 0.380570
0.080742 -0.006144 0.380320 255 0 56 0.080742 -0.006144 0.380320
0.081455 -0.006136 0.379820 255 0 57 0.081455 -0.006136 0.379820
0.082281 -0.006136 0.379852 255 0 65 0.082281 -0.006136 0.379852
0.083026 -0.006131 0.379508 255 0 60 0.083026 -0.006131 0.379508
0.083811 -0.006128 0.379352 255 0 67 0.083811 -0.006128 0.379352
0.084638 -0.006128 0.379383 255 1 58 0.084638 -0.006128 0.379383
0.085437 -0.006127 0.379289 255 0 74 0.085437 -0.006127 0.379289
0.086264 -0.006127 0.379321 255 0 71 0.086264 -0.006127 0.379321
0.087092 -0.006127 0.379352 255 0 53 0.087092 -0.006127 0.379352
0.087914 -0.006127 0.379352 255 13 47 0.087914 -0.006127 0.379352
0.088779 -0.006130 0.379539 255 8 42 0.088779 -0.006130 0.379539
0.089565 -0.006127 0.379383 255 7 56 0.089565 -0.006127 0.379383
0.090425 -0.006130 0.379539 255 15 72 0.090425 -0.006130 0.379539
0.091331 -0.006135 0.379883 253 12 68 0.091331 -0.006135 0.379883
0.092140 -0.006134 0.379820 255 16 75 0.092140 -0.006134 0.379820
0.124136 -0.007774 0.481491 252 13 72 0.124136 -0.007774 0.481491
0.044239 -0.005356 0.380914 255 87 91 0.044239 -0.005356 0.380914
0.044707 -0.005315 0.378040 255 98 102 0.044707 -0.005315 0.378040
0.045716 -0.005339 0.379758 255 99 103 0.045716 -0.005339 0.379758
0.046537 -0.005341 0.379883 255 93 97 0.046537 -0.005341 0.379883
0.047387 -0.005346 0.380226 255 95 94 0.047387 -0.005346 0.380226
0.048198 -0.005346 0.380258 255 94 93 0.048198 -0.005346 0.380258
0.049026 -0.005348 0.380414 255 99 116 0.049026 -0.005348 0.380414
0.049826 -0.005347 0.380351 255 95 106 0.049826 -0.005347 0.380351
0.050705 -0.005354 0.380882 255 93 104 0.050705 -0.005354 0.380882
0.051570 -0.005360 0.381288 255 91 85 0.051570 -0.005360 0.381288
0.052556 -0.005378 0.382569 255 80 79 0.052556 -0.005378 0.382569
0.053601 -0.005401 0.384224 255 74 74 0.053601 -0.005401 0.384224
0.054985 -0.005457 0.388223 255 67 77 0.054985 -0.005457 0.388223
0.056265 -0.005501 0.391377 255 65 74 0.056265 -0.005501 0.391377
0.057595 -0.005549 0.394782 255 58 84 0.057595 -0.005549 0.394782
0.059375 -0.005638 0.401123 255 58 84 0.059375 -0.005638 0.401123
0.060529 -0.005666 0.403122 255 56 82 0.060529 -0.005666 0.403122
0.061099 -0.005639 0.401216 255 46 80 0.061099 -0.005639 0.401216
0.060917 -0.005544 0.394501 255 49 89 0.060917 -0.005544 0.394501
0.061328 -0.005505 0.391752 255 43 88 0.061328 -0.005505 0.391752
0.061758 -0.005469 0.389191 255 41 83 0.061758 -0.005469 0.389191
0.062217 -0.005436 0.386879 255 45 76 0.062217 -0.005436 0.386879
0.062855 -0.005420 0.385724 255 49 80 0.062855 -0.005420 0.385724
0.063632 -0.005416 0.385443 255 32 73 0.063632 -0.005416 0.385443
0.064430 -0.005413 0.385286 255 38 76 0.064430 -0.005413 0.385286
0.065232 -0.005411 0.385161 255 41 78 0.065232 -0.005411 0.385161
0.066077 -0.005413 0.385286 255 41 59 0.066077 -0.005413 0.385286
0.066902 -0.005413 0.385286 255 42 38 0.066902 -0.005413 0.385286
0.067759 -0.005415 0.385474 254 32 28 0.067759 -0.005415 0.385474
0.068573 -0.005414 0.385411 255 18 64 0.068573 -0.005414 0.385411
0.069399 -0.005414 0.385411 255 19 65 0.069399 -0.005414 0.385411
0.070287 -0.005418 0.385755 255 8 72 0.070287 -0.005418 0.385755
0.071085 -0.005416 0.385599 255 7 70 0.071085 -0.005416 0.385599
0.071831 -0.005410 0.385161 255 4 67 0.071831 -0.005410 0.385161
0.072627 -0.005407 0.385005 255 7 61 0.072627 -0.005407 0.385005
0.073406 -0.005403 0.384755 255 15 66 0.073406 -0.005403 0.384755
0.074136 -0.005396 0.384256 255 21 72 0.074136 -0.005396 0.384256
0.074912 -0.005392 0.384006 255 14 74 0.074912 -0.005392 0.384006
0.075608 -0.005383 0.383350 255 0 75 0.075608 -0.005383 0.383350
0.076395 -0.005380 0.383162 250 0 38 0.076395 -0.005380 0.383162
0.077055 -0.005368 0.382350 255 0 51 0.077055 -0.005368 0.382350
0.077751 -0.005359 0.381726 255 0 45 0.077751 -0.005359 0.381726
0.078489 -0.005353 0.381320 255 6 58 0.078489 -0.005353 0.381320
0.079219 -0.005347 0.380882 249 0 47 0.079219 -0.005347 0.380882
0.080014 -0.005345 0.380757 255 0 49 0.080014 -0.005345 0.380757
0.080795 -0.005342 0.380570 255 0 44 0.080795 -0.005342 0.380570
0.081508 -0.005335 0.380070 255 0 41 0.081508 -0.005335 0.380070
0.082335 -0.005335 0.380101 255 0 51 0.082335 -0.005335 0.380101
0.083067 -0.005329 0.379695 255 0 55 0.083067 -0.005329 0.379695
0.083846 -0.005326 0.379508 255 0 58 0.083846 -0.005326 0.379508
0.084673 -0.005326 0.379539 255 0 59 0.084673 -0.005326 0.379539
0.085472 -0.005324 0.379445 255 0 74 0.085472 -0.005324 0.379445
0.086307 -0.005325 0.379508 255 0 71 0.086307 -0.005325 0.379508
0.087128 -0.005325 0.379508 255 0 66 0.087128 -0.005325 0.379508
0.087957 -0.005325 0.379539 255 4 55 0.087957 -0.005325 0.379539
0.088823 -0.005327 0.379727 255 6 58 0.088823 -0.005327 0.379727
0.089624 -0.005326 0.379633 255 2 66 0.089624 -0.005326 0.379633
0.090477 -0.005327 0.379758 255 2 81 0.090477 -0.005327 0.379758
0.091384 -0.005331 0.380101 253 0 76 0.091384 -0.005331 0.380101
0.092186 -0.005330 0.380008 255 0 80 0.092186 -0.005330 0.380008
0.192761 -0.009811 0.700200 253 10 79 0.192761 -0.009811 0.700200
0.043150 -0.004524 0.378446 255 79 69 0.043150 -0.004524 0.378446
0.044254 -0.004555 0.381038 255 81 71 0.044254 -0.004555 0.381038
0.044737 -0.004522 0.378290 255 87 96 0.044737 -0.004522 0.378290
0.045731 -0.004540 0.379883 255 88 107 0.045731 -0.004540 0.379883
0.046568 -0.004543 0.380133 255 85 105 0.046568 -0.004543 0.380133
0.047426 -0.004548 0.380539 255 83 103 0.047426 -0.004548 0.380539
0.048257 -0.004550 0.380726 255 80 101 0.048257 -0.004550 0.380726
0.049094 -0.004552 0.380945 255 90 116 0.049094 -0.004552 0.380945
0.049908 -0.004552 0.380976 255 89 118 0.049908 -0.004552 0.380976
0.050772 -0.004557 0.381382 255 87 117 0.050772 -0.004557 0.381382
0.051646 -0.004562 0.381851 255 79 96 0.051646 -0.004562 0.381851
0.052582 -0.004573 0.382756 255 73 83 0.052582 -0.004573 0.382756
0.053667 -0.004596 0.384693 255 70 80 0.053667 -0.004596 0.384693
0.055021 -0.004641 0.388472 255 69 81 0.055021 -0.004641 0.388472
0.056310 -0.004679 0.391690 255 66 77 0.056310 -0.004679 0.391690
0.057586 -0.004715 0.394719 255 56 77 0.057586 -0.004715 0.394719
0.059389 -0.004792 0.401216 255 56 77 0.059389 -0.004792 0.401216
0.060450 -0.004808 0.402591 255 48 77 0.060450 -0.004808 0.402591
0.060842 -0.004772 0.399530 255 48 77 0.060842 -0.004772 0.399530
0.060676 -0.004693 0.392939 255 50 76 0.060676 -0.004693 0.392939
0.061104 -0.004661 0.390315 255 46 80 0.061104 -0.004661 0.390315
0.061500 -0.004628 0.387567 255 45 78 0.061500 -0.004628 0.387567
0.061951 -0.004600 0.385224 255 41 82 0.061951 -0.004600 0.385224
0.062641 -0.004590 0.384412 255 36 78 0.062641 -0.004590 0.384412
0.063426 -0.004587 0.384193 255 29 78 0.063426 -0.004587 0.384193
0.064299 -0.004590 0.384506 255 27 64 0.064299 -0.004590 0.384506
0.065190 -0.004595 0.384912 255 27 64 0.065190 -0.004595 0.384912
0.066131 -0.004603 0.385599 255 27 71 0.066131 -0.004603 0.385599
0.067021 -0.004607 0.385974 255 30 63 0.067021 -0.004607 0.385974
0.067946 -0.004613 0.386536 255 30 63 0.067946 -0.004613 0.386536
0.068785 -0.004613 0.386598 255 24 67 0.068785 -0.004613 0.386598
0.069568 -0.004610 0.386348 255 27 70 0.069568 -0.004610 0.386348
0.070356 -0.004607 0.386130 255 12 67 0.070356 -0.004607 0.386130
0.071155 -0.004605 0.385974 255 6 68 0.071155 -0.004605 0.385974
0.071895 -0.004599 0.385505 255 4 67 0.071895 -0.004599 0.385505
0.072710 -0.004598 0.385443 255 5 63 0.072710 -0.004598 0.385443
0.073466 -0.004593 0.385068 255 22 74 0.073466 -0.004593 0.385068
0.074166 -0.004585 0.384412 255 22 74 0.074166 -0.004585 0.384412
0.074943 -0.004582 0.384162 255 10 86 0.074943 -0.004582 0.384162
0.075639 -0.004573 0.383506 254 0 64 0.075639 -0.004573 0.383506
0.076420 -0.004570 0.383287 253 0 57 0.076420 -0.004570 0.383287
0.077081 -0.004560 0.382475 255 0 59 0.077081 -0.004560 0.382475
0.077770 -0.004552 0.381819 255 0 72 0.077770 -0.004552 0.381819
0.078515 -0.004547 0.381445 255 0 58 0.078515 -0.004547 0.381445
0.079252 -0.004542 0.381038 255 0 55 0.079252 -0.004542 0.381038
0.080047 -0.004540 0.380914 255 0 53 0.080047 -0.004540 0.380914
0.080822 -0.004537 0.380695 255 0 53 0.080822 -0.004537 0.380695
0.081529 -0.004530 0.380164 255 0 53 0.081529 -0.004530 0.380164
0.082363 -0.004531 0.380226 255 0 61 0.082363 -0.004531 0.380226
0.083095 -0.004525 0.379820 255 0 54 0.083095 -0.004525 0.379820
0.083874 -0.004523 0.379633 255 0 57 0.083874 -0.004523 0.379633
0.084708 -0.004523 0.379695 255 0 60 0.084708 -0.004523 0.379695
0.085515 -0.004522 0.379633 255 0 63 0.085515 -0.004522 0.379633
0.086343 -0.004522 0.379664 255 0 67 0.086343 -0.004522 0.379664
0.087172 -0.004522 0.379695 255 0 63 0.087172 -0.004522 0.379695
0.088001 -0.004522 0.379727 255 0 59 0.088001 -0.004522 0.379727
0.088867 -0.004524 0.379914 255 0 61 0.088867 -0.004524 0.379914
0.089683 -0.004523 0.379883 255 0 68 0.089683 -0.004523 0.379883
0.090537 -0.004524 0.380008 255 0 74 0.090537 -0.004524 0.380008
0.091437 -0.004527 0.380320 255 0 75 0.091437 -0.004527 0.380320
0.092247 -0.004526 0.380258 254 0 73 0.092247 -0.004526 0.380258
0.043115 -0.003723 0.378134 255 66 46 0.043115 -0.003723 0.378134
0.044287 -0.003755 0.381320 255 60 40 0.044287 -0.003755 0.381320
0.044774 -0.003728 0.378602 255 59 56 0.044774 -0.003728 0.378602
0.045762 -0.003742 0.380133 255 51 63 0.045762 -0.003742 0.380133
0.046610 -0.003745 0.380476 255 52 64 0.046610 -0.003745 0.380476
0.047469 -0.003749 0.380882 255 50 80 0.047469 -0.003749 0.380882
0.048321 -0.003752 0.381226 255 50 80 0.048321 -0.003752 0.381226
0.049163 -0.003754 0.381476 255 69 89 0.049163 -0.003754 0.381476
0.050006 -0.003757 0.381726 255 69 68 0.050006 -0.003757 0.381726
0.050851 -0.003759 0.381976 255 69 68 0.050851 -0.003759 0.381976
0.051731 -0.003763 0.382475 255 67 61 0.051731 -0.003763 0.382475
0.052608 -0.003768 0.382944 255 67 61 0.052608 -0.003768 0.382944
0.053741 -0.003790 0.385224 255 66 60 0.053741 -0.003790 0.385224
0.055056 -0.003824 0.388722 255 59 65 0.055056 -0.003824 0.388722
0.056351 -0.003855 0.391971 255 56 61 0.056351 -0.003855 0.391971
0.057577 -0.003881 0.394657 255 43 68 0.057577 -0.003881 0.394657
0.059407 -0.003947 0.401341 255 39 77 0.059407 -0.003947 0.401341
0.060361 -0.003953 0.401997 255 45 76 0.060361 -0.003953 0.401997
0.060595 -0.003912 0.397905 255 45 76 0.060595 -0.003912 0.397905
0.060469 -0.003850 0.391596 255 40 93 0.060469 -0.003850 0.391596
0.060840 -0.003820 0.388629 255 39 88 0.060840 -0.003820 0.388629
0.061208 -0.003791 0.385724 255 36 71 0.061208 -0.003791 0.385724
0.061690 -0.003770 0.383600 255 41 76 0.061690 -0.003770 0.383600
0.062423 -0.003764 0.383069 253 27 62 0.062423 -0.003764 0.383069
0.063194 -0.003761 0.382788 255 20 57 0.063194 -0.003761 0.382788
0.064159 -0.003770 0.383662 255 35 70 0.064159 -0.003770 0.383662
0.065148 -0.003779 0.384662 255 36 71 0.065148 -0.003779 0.384662
0.066201 -0.003792 0.386005 255 26 67 0.066201 -0.003792 0.386005
0.067190 -0.003800 0.386942 255 26 67 0.067190 -0.003800 0.386942
0.068232 -0.003812 0.388160 255 13 46 0.068232 -0.003812 0.388160
0.069146 -0.003816 0.388629 255 11 55 0.069146 -0.003816 0.388629
0.069855 -0.003809 0.387941 255 10 54 0.069855 -0.003809 0.387941
0.070498 -0.003798 0.386911 255 20 70 0.070498 -0.003798 0.386911
0.071253 -0.003794 0.386505 255 12 66 0.071253 -0.003794 0.386505
0.071959 -0.003787 0.385849 255 16 69 0.071959 -0.003787 0.385849
0.072758 -0.003785 0.385693 255 3 74 0.072758 -0.003785 0.385693
0.073508 -0.003781 0.385286 255 9 79 0.073508 -0.003781 0.385286
0.074203 -0.003773 0.384599 255 2 72 0.074203 -0.003773 0.384599
0.074974 -0.003770 0.384318 255 1 58 0.074974 -0.003770 0.384318
0.075677 -0.003764 0.383693 255 0 67 0.075677 -0.003764 0.383693
0.076452 -0.003761 0.383444 253 0 53 0.076452 -0.003761 0.383444
0.077113 -0.003752 0.382631 255 0 58 0.077113 -0.003752 0.382631
0.077809 -0.003745 0.382007 255 0 58 0.077809 -0.003745 0.382007
0.078554 -0.003741 0.381632 255 0 43 0.078554 -0.003741 0.381632
0.079285 -0.003736 0.381195 255 0 39 0.079285 -0.003736 0.381195
0.080080 -0.003735 0.381070 255 0 49 0.080080 -0.003735 0.381070
0.080855 -0.003732 0.380851 255 0 51 0.080855 -0.003732 0.380851
0.081570 -0.003727 0.380351 255 0 58 0.081570 -0.003727 0.380351
0.082404 -0.003727 0.380414 255 0 54 0.082404 -0.003727 0.380414
0.083143 -0.003723 0.380039 255 0 50 0.083143 -0.003723 0.380039
0.083922 -0.003720 0.379852 254 0 46 0.083922 -0.003720 0.379852
0.084757 -0.003720 0.379914 255 0 58 0.084757 -0.003720 0.379914
0.085564 -0.003719 0.379852 255 0 49 0.085564 -0.003719 0.379852
0.086393 -0.003719 0.379883 255 0 54 0.086393 -0.003719 0.379883
0.087230 -0.003719 0.379945 255 0 56 0.087230 -0.003719 0.379945
0.088052 -0.003718 0.379945 255 0 65 0.088052 -0.003718 0.379945
0.088919 -0.003719 0.380133 255 0 61 0.088919 -0.003719 0.380133
0.089743 -0.003719 0.380133 253 0 66 0.089743 -0.003719 0.380133
0.090597 -0.003720 0.380258 253 0 66 0.090597 -0.003720 0.380258
0.091497 -0.003722 0.380570 255 0 71 0.091497 -0.003722 0.380570
0.092308 -0.003721 0.380507 254 0 65 0.092308 -0.003721 0.380507
0.146491 -0.005364 0.549584 254 0 71 0.146491 -0.005364 0.549584
0.043326 -0.002887 0.373042 255 56 51 0.043326 -0.002887 0.373042
0.044800 -0.002931 0.378821 255 56 51 0.044800 -0.002931 0.378821
0.045800 -0.002944 0.380445 255 51 47 0.045800 -0.002944 0.380445
0.046649 -0.002946 0.380789 255 44 60 0.046649 -0.002946 0.380789
0.047508 -0.002949 0.381195 255 48 72 0.047508 -0.002949 0.381195
0.048357 -0.002951 0.381507 255 51 76 0.048357 -0.002951 0.381507
0.049200 -0.002952 0.381757 255 58 71 0.049200 -0.002952 0.381757
0.050039 -0.002954 0.381976 255 59 65 0.050039 -0.002954 0.381976
0.050884 -0.002955 0.382225 255 56 61 0.050884 -0.002955 0.382225
0.051765 -0.002959 0.382725 255 46 52 0.051765 -0.002959 0.382725
0.052634 -0.002961 0.383131 255 53 38 0.052634 -0.002961 0.383131
0.053755 -0.002978 0.385318 255 53 38 0.053755 -0.002978 0.385318
0.055057 -0.003004 0.388722 255 53 37 0.055057 -0.003004 0.388722
0.056342 -0.003028 0.391908 255 49 33 0.056342 -0.003028 0.391908
0.057550 -0.003047 0.394470 255 40 51 0.057550 -0.003047 0.394470
0.059436 -0.003101 0.401529 255 40 51 0.059436 -0.003101 0.401529
0.060268 -0.003100 0.401373 255 35 70 0.060268 -0.003100 0.401373
0.060210 -0.003053 0.395375 255 26 83 0.060210 -0.003053 0.395375
0.060026 -0.003001 0.388722 255 29 85 0.060026 -0.003001 0.388722
0.060542 -0.002985 0.386723 255 19 85 0.060542 -0.002985 0.386723
0.061045 -0.002969 0.384693 255 15 74 0.061045 -0.002969 0.384693
0.061685 -0.002960 0.383568 255 23 73 0.061685 -0.002960 0.383568
0.062326 -0.002951 0.382475 255 21 71 0.062326 -0.002951 0.382475
0.063076 -0.002947 0.382069 255 17 65 0.063076 -0.002947 0.382069
0.064081 -0.002955 0.383194 255 23 68 0.064081 -0.002955 0.383194
0.065122 -0.002965 0.384506 255 23 68 0.065122 -0.002965 0.384506
0.066287 -0.002980 0.386505 255 23 68 0.066287 -0.002980 0.386505
0.067391 -0.002992 0.388098 255 26 70 0.067391 -0.002992 0.388098
0.068606 -0.003008 0.390284 255 13 51 0.068606 -0.003008 0.390284
0.069658 -0.003017 0.391502 255 9 45 0.069658 -0.003017 0.391502
0.070260 -0.003006 0.390190 255 11 47 0.070260 -0.003006 0.390190
0.070675 -0.002988 0.387879 255 17 54 0.070675 -0.002988 0.387879
0.071363 -0.002981 0.387098 255 12 62 0.071363 -0.002981 0.387098
0.072030 -0.002974 0.386223 255 14 64 0.072030 -0.002974 0.386223
0.072811 -0.002971 0.385974 255 9 68 0.072811 -0.002971 0.385974
0.073550 -0.002967 0.385505 255 12 60 0.073550 -0.002967 0.385505
0.074252 -0.002961 0.384849 255 15 63 0.074252 -0.002961 0.384849
0.075011 -0.002958 0.384506 255 10 57 0.075011 -0.002958 0.384506
0.075714 -0.002953 0.383881 255 0 56 0.075714 -0.002953 0.383881
0.076496 -0.002951 0.383662 255 0 50 0.076496 -0.002951 0.383662
0.077157 -0.002944 0.382850 255 0 51 0.077157 -0.002944 0.382850
0.077848 -0.002938 0.382194 255 0 41 0.077848 -0.002938 0.382194
0.078600 -0.002935 0.381851 255 0 34 0.078600 -0.002935 0.381851
0.079331 -0.002931 0.381413 255 0 35 0.079331 -0.002931 0.381413
0.080133 -0.002929 0.381320 255 0 39 0.080133 -0.002929 0.381320
0.080896 -0.002927 0.381038 255 0 47 0.080896 -0.002927 0.381038
0.081610 -0.002922 0.380539 255 0 51 0.081610 -0.002922 0.380539
0.082452 -0.002922 0.380632 255 0 54 0.082452 -0.002922 0.380632
0.083191 -0.002919 0.380258 255 0 49 0.083191 -0.002919 0.380258
0.083964 -0.002916 0.380039 255 0 50 0.083964 -0.002916 0.380039
0.084800 -0.002916 0.380101 255 0 52 0.084800 -0.002916 0.380101
0.085607 -0.002915 0.380039 251 0 50 0.085607 -0.002915 0.380039
0.086436 -0.002914 0.380070 255 0 59 0.086436 -0.002914 0.380070
0.087273 -0.002914 0.380133 255 0 56 0.087273 -0.002914 0.380133
0.088096 -0.002914 0.380133 255 0 61 0.088096 -0.002914 0.380133
0.088964 -0.002914 0.380320 255 0 62 0.088964 -0.002914 0.380320
0.089788 -0.002914 0.380320 255 0 59 0.089788 -0.002914 0.380320
0.090635 -0.002913 0.380414 255 1 56 0.090635 -0.002913 0.380414
0.091543 -0.002915 0.380757 251 0 50 0.091543 -0.002915 0.380757
0.092347 -0.002914 0.380664 255 3 67 0.092347 -0.002914 0.380664
0.144053 -0.004160 0.544898 254 8 71 0.144053 -0.004160 0.544898
0.145451 -0.004165 0.545679 255 11 74 0.145451 -0.004165 0.545679
0.043304 -0.002100 0.372855 255 52 64 0.043304 -0.002100 0.372855
0.044823 -0.002134 0.379008 255 52 64 0.044823 -0.002134 0.379008
0.045841 -0.002144 0.380789 255 47 60 0.045841 -0.002144 0.380789
0.046688 -0.002145 0.381101 255 50 74 0.046688 -0.002145 0.381101
0.047547 -0.002147 0.381507 255 54 72 0.047547 -0.002147 0.381507
0.048393 -0.002148 0.381788 255 54 72 0.048393 -0.002148 0.381788
0.049236 -0.002149 0.382038 255 50 65 0.049236 -0.002149 0.382038
0.050077 -0.002150 0.382257 255 43 50 0.050077 -0.002150 0.382257
0.050922 -0.002151 0.382507 255 41 48 0.050922 -0.002151 0.382507
0.051803 -0.002153 0.383006 255 26 34 0.051803 -0.002153 0.383006
0.052665 -0.002154 0.383350 255 30 28 0.052665 -0.002154 0.383350
0.053772 -0.002166 0.385443 255 28 27 0.053772 -0.002166 0.385443
0.055066 -0.002184 0.388785 255 27 33 0.055066 -0.002184 0.388785
0.056352 -0.002201 0.391971 255 30 35 0.056352 -0.002201 0.391971
0.057551 -0.002215 0.394470 255 26 41 0.057551 -0.002215 0.394470
0.059404 -0.002253 0.401310 255 26 41 0.059404 -0.002253 0.401310
0.060114 -0.002247 0.400342 255 28 61 0.060114 -0.002247 0.400342
0.059920 -0.002208 0.393470 255 27 56 0.059920 -0.002208 0.393470
0.059616 -0.002165 0.386067 255 8 64 0.059616 -0.002165 0.386067
0.060029 -0.002150 0.383444 255 14 70 0.060029 -0.002150 0.383444
0.060659 -0.002143 0.382257 255 19 81 0.060659 -0.002143 0.382257
0.061450 -0.002141 0.382100 255 17 83 0.061450 -0.002141 0.382100
0.062215 -0.002139 0.381788 252 7 72 0.062215 -0.002139 0.381788
0.063051 -0.002139 0.381913 255 2 62 0.063051 -0.002139 0.381913
0.064102 -0.002147 0.383319 255 8 72 0.064102 -0.002147 0.383319
0.065154 -0.002154 0.384693 255 8 72 0.065154 -0.002154 0.384693
0.066325 -0.002164 0.386723 254 6 68 0.066325 -0.002164 0.386723
0.067424 -0.002172 0.388285 255 17 79 0.067424 -0.002172 0.388285
0.068623 -0.002183 0.390378 255 11 53 0.068623 -0.002183 0.390378
0.069725 -0.002191 0.391877 253 0 33 0.069725 -0.002191 0.391877
0.070407 -0.002186 0.391002 255 0 39 0.070407 -0.002186 0.391002
0.070835 -0.002172 0.388754 255 0 44 0.070835 -0.002172 0.388754
0.071479 -0.002166 0.387723 255 5 55 0.071479 -0.002166 0.387723
0.072112 -0.002159 0.386661 255 4 54 0.072112 -0.002159 0.386661
0.072865 -0.002156 0.386255 255 15 52 0.072865 -0.002156 0.386255
0.073593 -0.002153 0.385724 255 22 51 0.073593 -0.002153 0.385724
0.074288 -0.002148 0.385037 255 17 47 0.074288 -0.002148 0.385037
0.075048 -0.002146 0.384693 255 11 60 0.075048 -0.002146 0.384693
0.075758 -0.002142 0.384100 255 0 65 0.075758 -0.002142 0.384100
0.076534 -0.002139 0.383850 255 0 56 0.076534 -0.002139 0.383850
0.077196 -0.002134 0.383038 255 0 63 0.077196 -0.002134 0.383038
0.077893 -0.002130 0.382413 255 0 48 0.077893 -0.002130 0.382413
0.078633 -0.002127 0.382007 255 0 44 0.078633 -0.002127 0.382007
0.079371 -0.002124 0.381601 255 0 41 0.079371 -0.002124 0.381601
0.080173 -0.002123 0.381507 255 0 46 0.080173 -0.002123 0.381507
0.080943 -0.002120 0.381257 255 0 52 0.080943 -0.002120 0.381257
0.081658 -0.002117 0.380757 255 0 54 0.081658 -0.002117 0.380757
0.082493 -0.002116 0.380820 255 0 63 0.082493 -0.002116 0.380820
0.083233 -0.002114 0.380445 254 0 56 0.083233 -0.002114 0.380445
0.084007 -0.002112 0.380226 252 0 55 0.084007 -0.002112 0.380226
0.084849 -0.002111 0.380320 255 0 58 0.084849 -0.002111 0.380320
0.085657 -0.002110 0.380258 255 0 50 0.085657 -0.002110 0.380258
0.086487 -0.002109 0.380289 255 0 51 0.086487 -0.002109 0.380289
0.087317 -0.002109 0.380320 255 0 50 0.087317 -0.002109 0.380320
0.088140 -0.002108 0.380320 251 0 56 0.088140 -0.002108 0.380320
0.089001 -0.002108 0.380476 255 0 62 0.089001 -0.002108 0.380476
0.089825 -0.002107 0.380476 255 0 64 0.089825 -0.002107 0.380476
0.090673 -0.002107 0.380570 254 1 57 0.090673 -0.002107 0.380570
0.091581 -0.002108 0.380914 255 2 58 0.091581 -0.002108 0.380914
0.143135 -0.003008 0.545929 255 3 67 0.143135 -0.003008 0.545929
0.143740 -0.002994 0.543711 251 0 74 0.143740 -0.002994 0.543711
0.145169 -0.002998 0.544617 255 3 78 0.145169 -0.002998 0.544617
0.043268 -0.001313 0.372542 255 41 53 0.043268 -0.001313 0.372542
0.044842 -0.001336 0.379164 255 46 63 0.044842 -0.001336 0.379164
0.045879 -0.001342 0.381101 255 48 64 0.045879 -0.001342 0.381101
0.046726 -0.001343 0.381413 255 59 71 0.046726 -0.001343 0.381413
0.047587 -0.001344 0.381819 255 56 74 0.047587 -0.001344 0.381819
0.048433 -0.001344 0.382100 255 49 67 0.048433 -0.001344 0.382100
0.049277 -0.001345 0.382350 255 37 65 0.049277 -0.001345 0.382350
0.050114 -0.001345 0.382538 255 41 45 0.050114 -0.001345 0.382538
0.050960 -0.001345 0.382788 255 40 44 0.050960 -0.001345 0.382788
0.051837 -0.001346 0.383256 255 33 38 0.051837 -0.001346 0.383256
0.052695 -0.001347 0.383568 255 16 30 0.052695 -0.001347 0.383568
0.053790 -0.001353 0.385568 255 21 35 0.053790 -0.001353 0.385568
0.055075 -0.001364 0.388847 255 24 46 0.055075 -0.001364 0.388847
0.056420 -0.001376 0.392439 255 23 45 0.056420 -0.001376 0.392439
0.057624 -0.001384 0.394969 255 6 16 0.057624 -0.001384 0.394969
0.059469 -0.001407 0.401747 255 6 16 0.059469 -0.001407 0.401747
0.060452 -0.001410 0.402591 255 2 36 0.060452 -0.001410 0.402591
0.059574 -0.001349 0.385786 255 0 43 0.059574 -0.001349 0.385786
0.059717 -0.001334 0.381445 255 0 54 0.059717 -0.001334 0.381445
0.060318 -0.001328 0.380101 255 0 54 0.060318 -0.001328 0.380101
0.061224 -0.001330 0.380695 255 0 60 0.061224 -0.001330 0.380695
0.062119 -0.001331 0.381195 252 0 54 0.062119 -0.001331 0.381195
0.063052 -0.001332 0.381913 255 8 48 0.063052 -0.001332 0.381913
0.064139 -0.001337 0.383537 255 2 48 0.064139 -0.001337 0.383537
0.065176 -0.001341 0.384818 254 0 40 0.065176 -0.001341 0.384818
0.066337 -0.001347 0.386786 255 0 54 0.066337 -0.001347 0.386786
0.067425 -0.001352 0.388285 255 0 50 0.067425 -0.001352 0.388285
0.068618 -0.001358 0.390347 255 0 43 0.068618 -0.001358 0.390347
0.069715 -0.001363 0.391815 255 0 50 0.069715 -0.001363 0.391815
0.070397 -0.001359 0.390940 255 0 52 0.070397 -0.001359 0.390940
0.070836 -0.001350 0.388754 255 0 47 0.070836 -0.001350 0.388754
0.071491 -0.001346 0.387785 255 0 47 0.071491 -0.001346 0.387785
0.072136 -0.001342 0.386786 254 0 42 0.072136 -0.001342 0.386786
0.072889 -0.001340 0.386380 255 0 37 0.072889 -0.001340 0.386380
0.073617 -0.001337 0.385849 255 1 33 0.073617 -0.001337 0.385849
0.074319 -0.001334 0.385193 255 3 36 0.074319 -0.001334 0.385193
0.075086 -0.001332 0.384880 255 2 61 0.075086 -0.001332 0.384880
0.075802 -0.001329 0.384318 255 0 58 0.075802 -0.001329 0.384318
0.076572 -0.001327 0.384037 255 0 62 0.076572 -0.001327 0.384037
0.077241 -0.001324 0.383256 254 0 51 0.077241 -0.001324 0.383256
0.077932 -0.001321 0.382600 255 0 56 0.077932 -0.001321 0.382600
0.078678 -0.001319 0.382225 255 0 62 0.078678 -0.001319 0.382225
0.079417 -0.001316 0.381819 253 0 50 0.079417 -0.001316 0.381819
0.080214 -0.001315 0.381694 255 0 49 0.080214 -0.001315 0.381694
0.080983 -0.001313 0.381445 255 0 48 0.080983 -0.001313 0.381445
0.081712 -0.001311 0.381007 253 0 40 0.081712 -0.001311 0.381007
0.082548 -0.001310 0.381070 255 0 51 0.082548 -0.001310 0.381070
0.083309 -0.001308 0.380789 255 0 60 0.083309 -0.001308 0.380789
0.084083 -0.001307 0.380570 255 0 58 0.084083 -0.001307 0.380570
0.084927 -0.001306 0.380664 255 0 44 0.084927 -0.001306 0.380664
0.085721 -0.001305 0.380539 255 0 33 0.085721 -0.001305 0.380539
0.086537 -0.001304 0.380507 255 0 32 0.086537 -0.001304 0.380507
0.087361 -0.001303 0.380507 255 0 54 0.087361 -0.001303 0.380507
0.088178 -0.001301 0.380476 251 0 53 0.088178 -0.001301 0.380476
0.089046 -0.001301 0.380664 255 0 58 0.089046 -0.001301 0.380664
0.089871 -0.001300 0.380664 254 0 54 0.089871 -0.001300 0.380664
0.090711 -0.001299 0.380726 250 0 60 0.090711 -0.001299 0.380726
0.091627 -0.001300 0.381101 255 0 67 0.091627 -0.001300 0.381101
0.143087 -0.001846 0.545742 247 0 71 0.143087 -0.001846 0.545742
0.144130 -0.001842 0.545180 247 0 75 0.144130 -0.001842 0.545180
0.145570 -0.001844 0.546117 247 0 75 0.145570 -0.001844 0.546117
0.043458 -0.000530 0.374167 255 35 23 0.043458 -0.000530 0.374167
0.044898 -0.000537 0.379633 255 35 23 0.044898 -0.000537 0.379633
0.045933 -0.000540 0.381538 255 34 22 0.045933 -0.000540 0.381538
0.046769 -0.000539 0.381757 255 29 31 0.046769 -0.000539 0.381757
0.047626 -0.000539 0.382132 255 42 54 0.047626 -0.000539 0.382132
0.048469 -0.000539 0.382382 255 37 49 0.048469 -0.000539 0.382382
0.049314 -0.000539 0.382631 255 44 37 0.049314 -0.000539 0.382631
0.050151 -0.000538 0.382819 255 43 42 0.050151 -0.000538 0.382819
0.050994 -0.000538 0.383038 255 42 41 0.050994 -0.000538 0.383038
0.051872 -0.000538 0.383506 255 28 57 0.051872 -0.000538 0.383506
0.052722 -0.000538 0.383756 255 20 62 0.052722 -0.000538 0.383756
0.053804 -0.000540 0.385661 252 5 46 0.053804 -0.000540 0.385661
0.055072 -0.000543 0.388816 255 0 29 0.055072 -0.000543 0.388816
0.056492 -0.000548 0.392939 255 2 32 0.056492 -0.000548 0.392939
0.057703 -0.000551 0.395500 255 0 22 0.057703 -0.000551 0.395500
0.059530 -0.000560 0.402153 255 0 22 0.059530 -0.000560 0.402153
0.060917 -0.000564 0.405683 255 0 22 0.060917 -0.000564 0.405683
0.059835 -0.000529 0.382194 253 0 26 0.059835 -0.000529 0.382194
0.060343 -0.000526 0.380258 253 0 34 0.060343 -0.000526 0.380258
0.061240 -0.000526 0.380789 255 0 40 0.061240 -0.000526 0.380789
0.062135 -0.000526 0.381288 250 0 31 0.062135 -0.000526 0.381288
0.063068 -0.000526 0.382007 255 0 34 0.063068 -0.000526 0.382007
0.064166 -0.000527 0.383693 255 0 35 0.064166 -0.000527 0.383693
0.065198 -0.000528 0.384943 255 0 34 0.065198 -0.000528 0.384943
0.066359 -0.000530 0.386911 255 0 44 0.066359 -0.000530 0.386911
0.067453 -0.000531 0.388441 252 0 40 0.067453 -0.000531 0.388441
0.068635 -0.000533 0.390440 251 0 43 0.068635 -0.000533 0.390440
0.069733 -0.000534 0.391908 254 0 41 0.069733 -0.000534 0.391908
0.070420 -0.000532 0.391065 255 0 44 0.070420 -0.000532 0.391065
0.070854 -0.000528 0.388847 255 0 28 0.070854 -0.000528 0.388847
0.071521 -0.000526 0.387941 255 0 40 0.071521 -0.000526 0.387941
0.072172 -0.000524 0.386973 253 0 37 0.072172 -0.000524 0.386973
0.072920 -0.000523 0.386536 255 0 62 0.072920 -0.000523 0.386536
0.073648 -0.000521 0.386005 255 0 52 0.073648 -0.000521 0.386005
0.074350 -0.000519 0.385349 255 0 63 0.074350 -0.000519 0.385349
0.075123 -0.000518 0.385068 248 0 25 0.075123 -0.000518 0.385068
0.075840 -0.000516 0.384506 254 0 19 0.075840 -0.000516 0.384506
0.076610 -0.000515 0.384224 255 0 27 0.076610 -0.000515 0.384224
0.077286 -0.000513 0.383475 255 0 33 0.077286 -0.000513 0.383475
0.077977 -0.000511 0.382819 255 0 61 0.077977 -0.000511 0.382819
0.078718 -0.000509 0.382413 255 0 43 0.078718 -0.000509 0.382413
0.079470 -0.000508 0.382069 255 0 48 0.079470 -0.000508 0.382069
0.080267 -0.000507 0.381944 255 0 42 0.080267 -0.000507 0.381944
0.081038 -0.000505 0.381694 253 0 43 0.081038 -0.000505 0.381694
0.081780 -0.000504 0.381320 255 0 49 0.081780 -0.000504 0.381320
0.082617 -0.000503 0.381382 255 0 54 0.082617 -0.000503 0.381382
0.083385 -0.000501 0.381132 255 0 56 0.083385 -0.000501 0.381132
0.084160 -0.000500 0.380914 253 0 51 0.084160 -0.000500 0.380914
0.085011 -0.000499 0.381038 252 0 34 0.085011 -0.000499 0.381038
0.085793 -0.000498 0.380851 255 0 42 0.085793 -0.000498 0.380851
0.086595 -0.000497 0.380757 252 0 35 0.086595 -0.000497 0.380757
0.087419 -0.000496 0.380757 252 0 43 0.087419 -0.000496 0.380757
0.088237 -0.000494 0.380726 250 0 56 0.088237 -0.000494 0.380726
