ply
format ascii 1.0
element vertex 730
property float x
property float y
property float z
property uchar red
property uchar green
property uchar blue
property float nx
property float ny
property float nz
end_header
0.054334 -0.037294 0.414366 255 47 76 0.054334 -0.037294 0.414366
0.054516 -0.036825 0.409119 255 43 71 0.054516 -0.036825 0.409119
0.054989 -0.036564 0.406183 255 38 67 0.054989 -0.036564 0.406183
0.055591 -0.036396 0.404277 255 41 70 0.055591 -0.036396 0.404277
0.056338 -0.036326 0.403465 255 37 60 0.056338 -0.036326 0.403465
0.057109 -0.036272 0.402841 255 29 63 0.057109 -0.036272 0.402841
0.057850 -0.036202 0.402029 255 32 56 0.057850 -0.036202 0.402029
0.058689 -0.036194 0.401904 255 29 54 0.058689 -0.036194 0.401904
0.059448 -0.036139 0.401248 255 39 47 0.059448 -0.036139 0.401248
0.060196 -0.036077 0.400529 255 64 70 0.060196 -0.036077 0.400529
0.061022 -0.036064 0.400342 255 64 70 0.061022 -0.036064 0.400342
0.061847 -0.036050 0.400154 255 68 72 0.061847 -0.036050 0.400154
0.062696 -0.036051 0.400123 255 71 80 0.062696 -0.036051 0.400123
0.063540 -0.036048 0.400061 255 71 80 0.063540 -0.036048 0.400061
0.064289 -0.035993 0.399405 255 61 71 0.064289 -0.035993 0.399405
0.065153 -0.036002 0.399467 255 60 70 0.065153 -0.036002 0.399467
0.065914 -0.035955 0.398905 255 62 72 0.065914 -0.035955 0.398905
0.066642 -0.035891 0.398155 255 64 85 0.066642 -0.035891 0.398155
0.067435 -0.035863 0.397812 255 52 82 0.067435 -0.035863 0.397812
0.068104 -0.035771 0.396750 249 30 60 0.068104 -0.035771 0.396750
0.068916 -0.035755 0.396531 255 13 54 0.068916 -0.035755 0.396531
0.069567 -0.035657 0.395407 255 0 53 0.069567 -0.035657 0.395407
0.070231 -0.035568 0.394376 255 0 47 0.070231 -0.035568 0.394376
0.070997 -0.035532 0.393939 254 0 41 0.070997 -0.035532 0.393939
0.071660 -0.035446 0.392939 255 0 50 0.071660 -0.035446 0.392939
0.072462 -0.035430 0.392720 255 0 44 0.072462 -0.035430 0.392720
0.073107 -0.035338 0.391658 255 0 40 0.073107 -0.035338 0.391658
0.073759 -0.035252 0.390659 255 0 46 0.073759 -0.035252 0.390659
0.074491 -0.035205 0.390097 255 0 47 0.074491 -0.035205 0.390097
0.075202 -0.035150 0.389441 255 0 49 0.075202 -0.035150 0.389441
0.076009 -0.035140 0.389285 255 0 54 0.076009 -0.035140 0.389285
0.076710 -0.035082 0.388597 253 0 24 0.076710 -0.035082 0.388597
0.077422 -0.035029 0.387973 254 0 25 0.077422 -0.035029 0.387973
0.078225 -0.035019 0.387816 254 0 20 0.078225 -0.035019 0.387816
0.079035 -0.035012 0.387692 253 0 32 0.079035 -0.035012 0.387692
0.079832 -0.034999 0.387504 254 0 33 0.079832 -0.034999 0.387504
0.080628 -0.034986 0.387317 250 0 30 0.080628 -0.034986 0.387317
0.081417 -0.034971 0.387098 255 0 42 0.081417 -0.034971 0.387098
0.082246 -0.034972 0.387067 255 0 40 0.082246 -0.034972 0.387067
0.083048 -0.034962 0.386911 255 0 34 0.083048 -0.034962 0.386911
0.083795 -0.034930 0.386505 254 0 39 0.083795 -0.034930 0.386505
0.084657 -0.034946 0.386630 255 0 42 0.084657 -0.034946 0.386630
0.085403 -0.034913 0.386223 255 0 43 0.085403 -0.034913 0.386223
0.086134 -0.034876 0.385755 255 0 45 0.086134 -0.034876 0.385755
0.086954 -0.034874 0.385693 255 0 43 0.086954 -0.034874 0.385693
0.087747 -0.034862 0.385505 254 0 51 0.087747 -0.034862 0.385505
0.088639 -0.034889 0.385755 253 0 33 0.088639 -0.034889 0.385755
0.089504 -0.034905 0.385880 255 0 35 0.089504 -0.034905 0.385880
0.090267 -0.034881 0.385568 254 0 15 0.090267 -0.034881 0.385568
0.091133 -0.034897 0.385693 254 0 31 0.091133 -0.034897 0.385693
0.052886 -0.036633 0.416865 255 58 85 0.052886 -0.036633 0.416865
0.053538 -0.036477 0.415054 255 62 89 0.053538 -0.036477 0.415054
0.054069 -0.036244 0.412367 255 55 72 0.054069 -0.036244 0.412367
0.054325 -0.035837 0.407713 255 46 63 0.054325 -0.035837 0.407713
0.054910 -0.035656 0.405621 255 40 52 0.054910 -0.035656 0.405621
0.055489 -0.035478 0.403559 255 47 45 0.055489 -0.035478 0.403559
0.056244 -0.035415 0.402809 254 38 35 0.056244 -0.035415 0.402809
0.056982 -0.035344 0.401966 255 44 18 0.056982 -0.035344 0.401966
0.057721 -0.035276 0.401154 255 60 53 0.057721 -0.035276 0.401154
0.058535 -0.035254 0.400873 255 65 58 0.058535 -0.035254 0.400873
0.059325 -0.035219 0.400436 255 63 81 0.059325 -0.035219 0.400436
0.060103 -0.035178 0.399936 255 61 91 0.060103 -0.035178 0.399936
0.060923 -0.035162 0.399717 255 63 93 0.060923 -0.035162 0.399717
0.061718 -0.035132 0.399342 255 67 96 0.061718 -0.035132 0.399342
0.062575 -0.035138 0.399374 255 72 92 0.062575 -0.035138 0.399374
0.063398 -0.035125 0.399186 255 72 92 0.063398 -0.035125 0.399186
0.064125 -0.035060 0.398405 255 70 78 0.064125 -0.035060 0.398405
0.064987 -0.035069 0.398468 255 69 59 0.064987 -0.035069 0.398468
0.065746 -0.035023 0.397905 255 61 51 0.065746 -0.035023 0.397905
0.066507 -0.034979 0.397374 255 30 26 0.066507 -0.034979 0.397374
0.067299 -0.034952 0.397031 255 6 36 0.067299 -0.034952 0.397031
0.067999 -0.034879 0.396156 255 1 31 0.067999 -0.034879 0.396156
0.068836 -0.034877 0.396094 255 0 40 0.068836 -0.034877 0.396094
0.069497 -0.034787 0.395032 255 0 34 0.069497 -0.034787 0.395032
0.070160 -0.034700 0.394001 255 2 38 0.070160 -0.034700 0.394001
0.070932 -0.034668 0.393595 255 0 16 0.070932 -0.034668 0.393595
0.071582 -0.034578 0.392533 255 0 25 0.071582 -0.034578 0.392533
0.072378 -0.034560 0.392283 255 0 24 0.072378 -0.034560 0.392283
0.073027 -0.034472 0.391252 255 0 39 0.073027 -0.034472 0.391252
0.073684 -0.034391 0.390284 255 0 40 0.073684 -0.034391 0.390284
0.074409 -0.034342 0.389691 255 0 38 0.074409 -0.034342 0.389691
0.075120 -0.034288 0.389035 255 0 33 0.075120 -0.034288 0.389035
0.075920 -0.034276 0.388847 255 0 19 0.075920 -0.034276 0.388847
0.076639 -0.034227 0.388254 255 0 34 0.076639 -0.034227 0.388254
0.077355 -0.034179 0.387660 253 0 28 0.077355 -0.034179 0.387660
0.078152 -0.034166 0.387473 255 0 29 0.078152 -0.034166 0.387473
0.078961 -0.034159 0.387348 255 0 42 0.078961 -0.034159 0.387348
0.079763 -0.034149 0.387192 255 0 33 0.079763 -0.034149 0.387192
0.080559 -0.034137 0.387004 253 0 32 0.080559 -0.034137 0.387004
0.081341 -0.034119 0.386755 255 0 49 0.081341 -0.034119 0.386755
0.082168 -0.034120 0.386723 255 0 51 0.082168 -0.034120 0.386723
0.082970 -0.034111 0.386567 255 0 44 0.082970 -0.034111 0.386567
0.083723 -0.034082 0.386192 255 0 38 0.083723 -0.034082 0.386192
0.084578 -0.034094 0.386286 255 0 41 0.084578 -0.034094 0.386286
0.085309 -0.034057 0.385817 253 0 36 0.085309 -0.034057 0.385817
0.086039 -0.034020 0.385349 255 0 57 0.086039 -0.034020 0.385349
0.086858 -0.034019 0.385286 251 0 47 0.086858 -0.034019 0.385286
0.087650 -0.034007 0.385099 255 0 58 0.087650 -0.034007 0.385099
0.088505 -0.034020 0.385193 255 0 43 0.088505 -0.034020 0.385193
0.089347 -0.034027 0.385224 252 0 39 0.089347 -0.034027 0.385224
0.090073 -0.033990 0.384755 255 0 25 0.090073 -0.033990 0.384755
0.090922 -0.034000 0.384818 255 0 34 0.090922 -0.034000 0.384818
0.052134 -0.035844 0.417958 255 51 111 0.052134 -0.035844 0.417958
0.052879 -0.035750 0.416834 255 48 102 0.052879 -0.035750 0.416834
0.053358 -0.035482 0.413679 255 54 108 0.053358 -0.035482 0.413679
0.053816 -0.035209 0.410462 255 50 88 0.053816 -0.035209 0.410462
0.054148 -0.034864 0.406401 255 45 69 0.054148 -0.034864 0.406401
0.054809 -0.034738 0.404902 255 41 60 0.054809 -0.034738 0.404902
0.055392 -0.034567 0.402872 255 33 48 0.055392 -0.034567 0.402872
0.056136 -0.034500 0.402060 255 28 43 0.056136 -0.034500 0.402060
0.056868 -0.034428 0.401185 255 45 25 0.056868 -0.034428 0.401185
0.057597 -0.034356 0.400311 255 67 54 0.057597 -0.034356 0.400311
0.058404 -0.034332 0.399998 255 70 56 0.058404 -0.034332 0.399998
0.059183 -0.034292 0.399498 255 69 74 0.059183 -0.034292 0.399498
0.060002 -0.034276 0.399280 255 68 82 0.060002 -0.034276 0.399280
0.060796 -0.034247 0.398905 255 67 81 0.060796 -0.034247 0.398905
0.061560 -0.034202 0.398343 255 71 89 0.061560 -0.034202 0.398343
0.062425 -0.034213 0.398436 255 81 89 0.062425 -0.034213 0.398436
0.063241 -0.034198 0.398218 255 82 90 0.063241 -0.034198 0.398218
0.064001 -0.034153 0.397656 255 72 73 0.064001 -0.034153 0.397656
0.064851 -0.034156 0.397656 255 37 51 0.064851 -0.034156 0.397656
0.065644 -0.034130 0.397312 249 20 35 0.065644 -0.034130 0.397312
0.066436 -0.034103 0.396968 255 6 23 0.066436 -0.034103 0.396968
0.067232 -0.034080 0.396656 255 0 42 0.067232 -0.034080 0.396656
0.067936 -0.034011 0.395813 255 0 44 0.067936 -0.034011 0.395813
0.068762 -0.034004 0.395688 255 0 49 0.068762 -0.034004 0.395688
0.069434 -0.033921 0.394688 255 0 42 0.069434 -0.033921 0.394688
0.070101 -0.033839 0.393689 255 0 37 0.070101 -0.033839 0.393689
0.070872 -0.033807 0.393283 255 0 29 0.070872 -0.033807 0.393283
0.071516 -0.033717 0.392189 255 0 50 0.071516 -0.033717 0.392189
0.072299 -0.033694 0.391877 255 0 51 0.072299 -0.033694 0.391877
0.072954 -0.033611 0.390878 255 0 56 0.072954 -0.033611 0.390878
0.073610 -0.033532 0.389909 255 0 55 0.073610 -0.033532 0.389909
0.074334 -0.033484 0.389316 255 0 31 0.074334 -0.033484 0.389316
0.075038 -0.033429 0.388629 255 0 31 0.075038 -0.033429 0.388629
0.075836 -0.033416 0.388441 254 0 26 0.075836 -0.033416 0.388441
0.076561 -0.033372 0.387879 253 0 45 0.076561 -0.033372 0.387879
0.077283 -0.033327 0.387317 253 0 45 0.077283 -0.033327 0.387317
0.078085 -0.033318 0.387161 255 0 37 0.078085 -0.033318 0.387161
0.078887 -0.033308 0.387004 255 0 41 0.078887 -0.033308 0.387004
0.079688 -0.033298 0.386848 255 0 40 0.079688 -0.033298 0.386848
0.080483 -0.033286 0.386661 255 0 54 0.080483 -0.033286 0.386661
0.081251 -0.033263 0.386348 255 0 57 0.081251 -0.033263 0.386348
0.082085 -0.033267 0.386348 255 0 54 0.082085 -0.033267 0.386348
0.082858 -0.033247 0.386067 255 0 44 0.082858 -0.033247 0.386067
0.083604 -0.033216 0.385661 255 0 28 0.083604 -0.033216 0.385661
0.084444 -0.033223 0.385693 255 0 29 0.084444 -0.033223 0.385693
0.085194 -0.033195 0.385318 255 0 28 0.085194 -0.033195 0.385318
0.085944 -0.033167 0.384943 254 0 27 0.085944 -0.033167 0.384943
0.086749 -0.033160 0.384818 255 0 33 0.086749 -0.033160 0.384818
0.087539 -0.033148 0.384631 255 0 28 0.087539 -0.033148 0.384631
0.088372 -0.033152 0.384631 255 0 20 0.088372 -0.033152 0.384631
0.089191 -0.033151 0.384568 255 0 20 0.089191 -0.033151 0.384568
0.089893 -0.033107 0.384006 255 0 26 0.089893 -0.033107 0.384006
0.090740 -0.033117 0.384068 252 0 38 0.090740 -0.033117 0.384068
0.051956 -0.034844 0.416553 255 52 100 0.051956 -0.034844 0.416553
0.052726 -0.034771 0.415647 255 48 90 0.052726 -0.034771 0.415647
0.053150 -0.034475 0.412086 255 47 88 0.053150 -0.034475 0.412086
0.053698 -0.034269 0.409587 255 45 85 0.053698 -0.034269 0.409587
0.054095 -0.033974 0.406027 255 39 63 0.054095 -0.033974 0.406027
0.054730 -0.033836 0.404340 255 34 59 0.054730 -0.033836 0.404340
0.055294 -0.033658 0.402185 255 36 30 0.055294 -0.033658 0.402185
0.056033 -0.033590 0.401341 255 41 36 0.056033 -0.033590 0.401341
0.056737 -0.033504 0.400279 255 72 45 0.056737 -0.033504 0.400279
0.057468 -0.033436 0.399436 255 73 71 0.057468 -0.033436 0.399436
0.058255 -0.033403 0.398999 255 74 72 0.058255 -0.033403 0.398999
0.059027 -0.033361 0.398468 255 78 81 0.059027 -0.033361 0.398468
0.059900 -0.033377 0.398624 255 76 79 0.059900 -0.033377 0.398624
0.060674 -0.033338 0.398124 255 72 76 0.060674 -0.033338 0.398124
0.061417 -0.033284 0.397437 255 76 74 0.061417 -0.033284 0.397437
0.062285 -0.033297 0.397562 255 72 78 0.062285 -0.033297 0.397562
0.063094 -0.033280 0.397312 255 63 69 0.063094 -0.033280 0.397312
0.063897 -0.033259 0.397031 255 23 64 0.063897 -0.033259 0.397031
0.064730 -0.033254 0.396937 255 10 56 0.064730 -0.033254 0.396937
0.065553 -0.033245 0.396781 255 10 56 0.065553 -0.033245 0.396781
0.066370 -0.033232 0.396594 255 19 42 0.066370 -0.033232 0.396594
0.067171 -0.033212 0.396312 255 12 49 0.067171 -0.033212 0.396312
0.067879 -0.033147 0.395500 255 10 47 0.067879 -0.033147 0.395500
0.068704 -0.033140 0.395375 255 0 42 0.068704 -0.033140 0.395375
0.069375 -0.033059 0.394376 255 0 38 0.069375 -0.033059 0.394376
0.070048 -0.032982 0.393408 255 0 33 0.070048 -0.032982 0.393408
0.070818 -0.032951 0.393002 254 0 42 0.070818 -0.032951 0.393002
0.071449 -0.032857 0.391846 255 0 41 0.071449 -0.032857 0.391846
0.072221 -0.032829 0.391471 255 0 44 0.072221 -0.032829 0.391471
0.072892 -0.032757 0.390565 255 0 36 0.072892 -0.032757 0.390565
0.073541 -0.032677 0.389566 255 0 45 0.073541 -0.032677 0.389566
0.074271 -0.032633 0.389003 255 0 44 0.074271 -0.032633 0.389003
0.074974 -0.032579 0.388316 255 0 44 0.074974 -0.032579 0.388316
0.075766 -0.032564 0.388098 254 0 46 0.075766 -0.032564 0.388098
0.076495 -0.032523 0.387567 255 0 49 0.076495 -0.032523 0.387567
0.077211 -0.032477 0.386973 252 0 45 0.077211 -0.032477 0.386973
0.078006 -0.032465 0.386786 255 0 43 0.078006 -0.032465 0.386786
0.078800 -0.032453 0.386598 255 0 31 0.078800 -0.032453 0.386598
0.079607 -0.032446 0.386473 255 0 28 0.079607 -0.032446 0.386473
0.080401 -0.032434 0.386286 255 0 36 0.080401 -0.032434 0.386286
0.081149 -0.032404 0.385880 255 0 44 0.081149 -0.032404 0.385880
0.081988 -0.032411 0.385911 255 0 44 0.081988 -0.032411 0.385911
0.082747 -0.032386 0.385568 255 0 39 0.082747 -0.032386 0.385568
0.083491 -0.032355 0.385161 255 0 40 0.083491 -0.032355 0.385161
0.084310 -0.032354 0.385099 253 0 33 0.084310 -0.032354 0.385099
0.085073 -0.032332 0.384787 253 0 30 0.085073 -0.032332 0.384787
0.085842 -0.032312 0.384506 255 0 44 0.085842 -0.032312 0.384506
0.086653 -0.032308 0.384412 255 0 46 0.086653 -0.032308 0.384412
0.087414 -0.032286 0.384100 255 0 38 0.087414 -0.032286 0.384100
0.088253 -0.032293 0.384131 255 0 20 0.088253 -0.032293 0.384131
0.089027 -0.032276 0.383881 255 0 17 0.089027 -0.032276 0.383881
0.089735 -0.032236 0.383350 255 0 18 0.089735 -0.032236 0.383350
0.090537 -0.032230 0.383225 248 0 32 0.090537 -0.032230 0.383225
0.091212 -0.032179 0.382569 255 0 41 0.091212 -0.032179 0.382569
0.051988 -0.033987 0.416834 255 55 88 0.051988 -0.033987 0.416834
0.052711 -0.033885 0.415553 255 48 79 0.052711 -0.033885 0.415553
0.053111 -0.033582 0.411805 255 46 74 0.053111 -0.033582 0.411805
0.053626 -0.033361 0.409056 255 48 61 0.053626 -0.033361 0.409056
0.054076 -0.033106 0.405902 255 45 50 0.054076 -0.033106 0.405902
0.054677 -0.032951 0.403965 255 45 35 0.054677 -0.032951 0.403965
0.055283 -0.032803 0.402122 255 77 57 0.055283 -0.032803 0.402122
0.056000 -0.032725 0.401123 255 76 56 0.056000 -0.032725 0.401123
0.056800 -0.032697 0.400748 255 68 75 0.056800 -0.032697 0.400748
0.057452 -0.032585 0.399342 255 72 90 0.057452 -0.032585 0.399342
0.058198 -0.032529 0.398624 255 70 88 0.058198 -0.032529 0.398624
0.058839 -0.032417 0.397218 255 77 96 0.058839 -0.032417 0.397218
0.059719 -0.032438 0.397437 255 70 96 0.059719 -0.032438 0.397437
0.060509 -0.032410 0.397062 253 55 81 0.060509 -0.032410 0.397062
0.061298 -0.032382 0.396687 255 48 50 0.061298 -0.032382 0.396687
0.062174 -0.032401 0.396875 255 44 56 0.062174 -0.032401 0.396875
0.063012 -0.032399 0.396812 255 39 50 0.063012 -0.032399 0.396812
0.063844 -0.032394 0.396719 255 13 69 0.063844 -0.032394 0.396719
0.064682 -0.032392 0.396656 255 8 48 0.064682 -0.032392 0.396656
0.065509 -0.032385 0.396531 255 14 54 0.065509 -0.032385 0.396531
0.066325 -0.032373 0.396344 255 28 43 0.066325 -0.032373 0.396344
0.067125 -0.032353 0.396063 255 13 57 0.067125 -0.032353 0.396063
0.067833 -0.032290 0.395250 253 2 45 0.067833 -0.032290 0.395250
0.068647 -0.032277 0.395063 255 0 50 0.068647 -0.032277 0.395063
0.069322 -0.032202 0.394095 255 0 37 0.069322 -0.032202 0.394095
0.069989 -0.032123 0.393095 255 0 38 0.069989 -0.032123 0.393095
0.070752 -0.032091 0.392658 255 0 31 0.070752 -0.032091 0.392658
0.071383 -0.032000 0.391502 255 0 33 0.071383 -0.032000 0.391502
0.072148 -0.031970 0.391096 255 0 33 0.072148 -0.031970 0.391096
0.072824 -0.031902 0.390222 255 0 28 0.072824 -0.031902 0.390222
0.073479 -0.031826 0.389253 255 0 40 0.073479 -0.031826 0.389253
0.074219 -0.031788 0.388754 255 0 41 0.074219 -0.031788 0.388754
0.074922 -0.031736 0.388066 255 0 46 0.074922 -0.031736 0.388066
0.075701 -0.031716 0.387785 254 0 38 0.075701 -0.031716 0.387785
0.076430 -0.031676 0.387254 255 0 32 0.076430 -0.031676 0.387254
0.077145 -0.031631 0.386661 255 0 37 0.077145 -0.031631 0.386661
0.077939 -0.031619 0.386473 255 0 41 0.077939 -0.031619 0.386473
0.078733 -0.031608 0.386286 255 0 35 0.078733 -0.031608 0.386286
0.079539 -0.031601 0.386161 255 0 28 0.079539 -0.031601 0.386161
0.080333 -0.031589 0.385974 255 0 32 0.080333 -0.031589 0.385974
0.081066 -0.031555 0.385505 255 0 46 0.081066 -0.031555 0.385505
0.081904 -0.031561 0.385536 255 0 44 0.081904 -0.031561 0.385536
0.082643 -0.031529 0.385099 255 0 47 0.082643 -0.031529 0.385099
0.083379 -0.031497 0.384662 255 0 33 0.083379 -0.031497 0.384662
0.084183 -0.031491 0.384537 253 0 30 0.084183 -0.031491 0.384537
0.084965 -0.031476 0.384318 255 0 28 0.084965 -0.031476 0.384318
0.085755 -0.031465 0.384131 255 0 47 0.085755 -0.031465 0.384131
0.086557 -0.031459 0.384006 250 0 41 0.086557 -0.031459 0.384006
0.087296 -0.031429 0.383600 255 0 42 0.087296 -0.031429 0.383600
0.088134 -0.031436 0.383631 255 0 17 0.088134 -0.031436 0.383631
0.088878 -0.031409 0.383256 255 0 22 0.088878 -0.031409 0.383256
0.089599 -0.031375 0.382788 255 0 22 0.089599 -0.031375 0.382788
0.090407 -0.031371 0.382694 248 0 26 0.090407 -0.031371 0.382694
0.091111 -0.031332 0.382163 255 0 35 0.091111 -0.031332 0.382163
0.051269 -0.033214 0.418208 255 54 104 0.051269 -0.033214 0.418208
0.051962 -0.033092 0.416647 255 50 73 0.051962 -0.033092 0.416647
0.052701 -0.033003 0.415491 255 43 67 0.052701 -0.033003 0.415491
0.053040 -0.032671 0.411274 255 48 70 0.053040 -0.032671 0.411274
0.053488 -0.032415 0.408026 255 54 76 0.053488 -0.032415 0.408026
0.053915 -0.032155 0.404715 255 54 72 0.053915 -0.032155 0.404715
0.054552 -0.032026 0.403059 255 64 71 0.054552 -0.032026 0.403059
0.055203 -0.031909 0.401560 255 81 91 0.055203 -0.031909 0.401560
0.055914 -0.031830 0.400529 255 77 87 0.055914 -0.031830 0.400529
0.056678 -0.031783 0.399905 255 72 83 0.056678 -0.031783 0.399905
0.057310 -0.031664 0.398374 255 76 79 0.057310 -0.031664 0.398374
0.058040 -0.031602 0.397562 255 74 78 0.058040 -0.031602 0.397562
0.058679 -0.031493 0.396156 255 70 99 0.058679 -0.031493 0.396156
0.059552 -0.031511 0.396344 255 61 64 0.059552 -0.031511 0.396344
0.060383 -0.031506 0.396250 255 49 52 0.060383 -0.031506 0.396250
0.061204 -0.031497 0.396094 255 43 33 0.061204 -0.031497 0.396094
0.062103 -0.031527 0.396437 255 38 37 0.062103 -0.031527 0.396437
0.062934 -0.031522 0.396344 255 36 35 0.062934 -0.031522 0.396344
0.063776 -0.031523 0.396312 255 22 47 0.063776 -0.031523 0.396312
0.064623 -0.031526 0.396312 255 12 37 0.064623 -0.031526 0.396312
0.065449 -0.031519 0.396188 255 15 41 0.065449 -0.031519 0.396188
0.066270 -0.031509 0.396031 255 20 24 0.066270 -0.031509 0.396031
0.067069 -0.031490 0.395750 255 5 15 0.067069 -0.031490 0.395750
0.067782 -0.031431 0.394969 250 0 2 0.067782 -0.031431 0.394969
0.068589 -0.031417 0.394751 255 0 37 0.068589 -0.031417 0.394751
0.069270 -0.031345 0.393814 255 0 58 0.069270 -0.031345 0.393814
0.069941 -0.031271 0.392845 255 0 56 0.069941 -0.031271 0.392845
0.070704 -0.031239 0.392408 255 0 70 0.070704 -0.031239 0.392408
0.071329 -0.031148 0.391221 255 0 72 0.071329 -0.031148 0.391221
0.072081 -0.031114 0.390753 255 0 69 0.072081 -0.031114 0.390753
0.072768 -0.031053 0.389941 255 0 69 0.072768 -0.031053 0.389941
0.073423 -0.030979 0.388972 247 0 50 0.073423 -0.030979 0.388972
0.074168 -0.030945 0.388504 255 0 50 0.074168 -0.030945 0.388504
0.074858 -0.030888 0.387754 255 0 51 0.074858 -0.030888 0.387754
0.075643 -0.030872 0.387504 255 0 48 0.075643 -0.030872 0.387504
0.076365 -0.030830 0.386942 255 0 51 0.076365 -0.030830 0.386942
0.077079 -0.030787 0.386348 255 0 42 0.077079 -0.030787 0.386348
0.077873 -0.030775 0.386161 255 0 35 0.077873 -0.030775 0.386161
0.078659 -0.030761 0.385942 255 0 33 0.078659 -0.030761 0.385942
0.079471 -0.030757 0.385849 255 0 32 0.079471 -0.030757 0.385849
0.080264 -0.030746 0.385661 253 0 29 0.080264 -0.030746 0.385661
0.080990 -0.030709 0.385161 255 0 32 0.080990 -0.030709 0.385161
0.081821 -0.030713 0.385161 254 0 26 0.081821 -0.030713 0.385161
0.082565 -0.030684 0.384755 250 0 33 0.082565 -0.030684 0.384755
0.083301 -0.030653 0.384318 254 0 27 0.083301 -0.030653 0.384318
0.084097 -0.030644 0.384162 255 0 31 0.084097 -0.030644 0.384162
0.084886 -0.030633 0.383975 255 0 31 0.084886 -0.030633 0.383975
0.085674 -0.030622 0.383787 255 0 42 0.085674 -0.030622 0.383787
0.086476 -0.030616 0.383662 252 0 36 0.086476 -0.030616 0.383662
0.087193 -0.030580 0.383162 251 0 38 0.087193 -0.030580 0.383162
0.088029 -0.030586 0.383194 253 0 24 0.088029 -0.030586 0.383194
0.088751 -0.030552 0.382725 255 0 31 0.088751 -0.030552 0.382725
0.089485 -0.030524 0.382319 255 0 43 0.089485 -0.030524 0.382319
0.090292 -0.030520 0.382225 255 0 48 0.090292 -0.030520 0.382225
0.091025 -0.030492 0.381819 255 0 49 0.091025 -0.030492 0.381819
0.089189 -0.020472 0.254223 112 67 105 0.089189 -0.020472 0.254223
0.089749 -0.020473 0.254192 115 77 112 0.089749 -0.020473 0.254192
0.051198 -0.032288 0.417646 255 58 97 0.051198 -0.032288 0.417646
0.051948 -0.032206 0.416553 255 56 75 0.051948 -0.032206 0.416553
0.052686 -0.032119 0.415397 255 53 68 0.052686 -0.032119 0.415397
0.052973 -0.031764 0.410774 255 58 72 0.052973 -0.031764 0.410774
0.053314 -0.031452 0.406714 255 59 73 0.053314 -0.031452 0.406714
0.053721 -0.031189 0.403278 255 60 77 0.053721 -0.031189 0.403278
0.054291 -0.031027 0.401154 255 65 81 0.054291 -0.031027 0.401154
0.054982 -0.030938 0.399967 255 72 95 0.054982 -0.030938 0.399967
0.055654 -0.030842 0.398686 255 70 93 0.055654 -0.030842 0.398686
0.056459 -0.030820 0.398374 255 71 94 0.056459 -0.030820 0.398374
0.057118 -0.030721 0.397062 255 76 84 0.057118 -0.030721 0.397062
0.057887 -0.030683 0.396531 255 76 84 0.057887 -0.030683 0.396531
0.058528 -0.030579 0.395157 255 60 68 0.058528 -0.030579 0.395157
0.059389 -0.030591 0.395282 255 46 42 0.059389 -0.030591 0.395282
0.060256 -0.030606 0.395438 255 41 37 0.060256 -0.030606 0.395438
0.061114 -0.030616 0.395532 255 40 36 0.061114 -0.030616 0.395532
0.062037 -0.030657 0.396031 255 35 38 0.062037 -0.030657 0.396031
0.062872 -0.030655 0.395969 255 34 37 0.062872 -0.030655 0.395969
0.063723 -0.030660 0.396000 255 21 41 0.063723 -0.030660 0.396000
0.064579 -0.030668 0.396063 255 7 39 0.064579 -0.030668 0.396063
0.065405 -0.030661 0.395938 255 14 46 0.065405 -0.030661 0.395938
0.066230 -0.030655 0.395813 255 15 47 0.066230 -0.030655 0.395813
0.067034 -0.030638 0.395563 255 0 56 0.067034 -0.030638 0.395563
0.067752 -0.030583 0.394813 245 0 39 0.067752 -0.030583 0.394813
0.068554 -0.030567 0.394563 255 0 73 0.068554 -0.030567 0.394563
0.069190 -0.030478 0.393376 255 0 63 0.069190 -0.030478 0.393376
0.069866 -0.030408 0.392439 255 0 65 0.069866 -0.030408 0.392439
0.070594 -0.030363 0.391815 255 0 68 0.070594 -0.030363 0.391815
0.071212 -0.030271 0.390596 255 4 70 0.071212 -0.030271 0.390596
0.071946 -0.030231 0.390034 255 0 61 0.071946 -0.030231 0.390034
0.072631 -0.030171 0.389222 255 0 64 0.072631 -0.030171 0.389222
0.073331 -0.030119 0.388504 250 0 48 0.073331 -0.030119 0.388504
0.074058 -0.030078 0.387941 253 0 46 0.074058 -0.030078 0.387941
0.074759 -0.030028 0.387254 255 0 50 0.074759 -0.030028 0.387254
0.075530 -0.030007 0.386942 249 0 28 0.075530 -0.030007 0.386942
0.076275 -0.029976 0.386505 255 0 26 0.076275 -0.029976 0.386505
0.077013 -0.029943 0.386036 255 0 22 0.077013 -0.029943 0.386036
0.077813 -0.029935 0.385880 255 0 42 0.077813 -0.029935 0.385880
0.078592 -0.029919 0.385630 255 0 39 0.078592 -0.029919 0.385630
0.079404 -0.029915 0.385536 253 0 33 0.079404 -0.029915 0.385536
0.080189 -0.029901 0.385318 255 0 34 0.080189 -0.029901 0.385318
0.080921 -0.029868 0.384849 255 0 42 0.080921 -0.029868 0.384849
0.081745 -0.029869 0.384818 249 0 30 0.081745 -0.029869 0.384818
0.082488 -0.029841 0.384412 255 0 45 0.082488 -0.029841 0.384412
0.083223 -0.029811 0.383975 255 0 43 0.083223 -0.029811 0.383975
0.084018 -0.029802 0.383818 252 0 38 0.084018 -0.029802 0.383818
0.084806 -0.029791 0.383631 255 0 41 0.084806 -0.029791 0.383631
0.085594 -0.029780 0.383444 255 0 37 0.085594 -0.029780 0.383444
0.086388 -0.029772 0.383287 255 0 39 0.086388 -0.029772 0.383287
0.087118 -0.029742 0.382850 251 0 17 0.087118 -0.029742 0.382850
0.087947 -0.029745 0.382850 246 0 0 0.087947 -0.029745 0.382850
0.088667 -0.029713 0.382382 255 0 13 0.088667 -0.029713 0.382382
0.089416 -0.029690 0.382038 254 0 26 0.089416 -0.029690 0.382038
0.090222 -0.029686 0.381944 255 0 35 0.090222 -0.029686 0.381944
0.090961 -0.029661 0.381569 255 0 38 0.090961 -0.029661 0.381569
0.089075 -0.019901 0.253911 92 66 96 0.089075 -0.019901 0.253911
0.089645 -0.019905 0.253911 118 80 112 0.089645 -0.019905 0.253911
0.049868 -0.031130 0.413992 255 52 93 0.049868 -0.031130 0.413992
0.051057 -0.031322 0.416522 255 57 98 0.051057 -0.031322 0.416522
0.051887 -0.031292 0.416084 255 59 73 0.051887 -0.031292 0.416084
0.052648 -0.031221 0.415116 255 64 69 0.052648 -0.031221 0.415116
0.052886 -0.030848 0.410118 255 57 71 0.052886 -0.030848 0.410118
0.053127 -0.030488 0.405308 255 56 70 0.053127 -0.030488 0.405308
0.053515 -0.030223 0.401747 255 65 71 0.053515 -0.030223 0.401747
0.054077 -0.030063 0.399592 255 77 81 0.054077 -0.030063 0.399592
0.054764 -0.029976 0.398405 255 80 95 0.054764 -0.029976 0.398405
0.055442 -0.029887 0.397187 255 79 94 0.055442 -0.029887 0.397187
0.056155 -0.029819 0.396250 255 72 93 0.056155 -0.029819 0.396250
0.056950 -0.029795 0.395906 255 70 86 0.056950 -0.029795 0.395906
0.057743 -0.029772 0.395563 255 56 59 0.057743 -0.029772 0.395563
0.058489 -0.029725 0.394907 255 49 52 0.058489 -0.029725 0.394907
0.059344 -0.029735 0.395001 255 46 36 0.059344 -0.029735 0.395001
0.060215 -0.029751 0.395188 255 43 34 0.060215 -0.029751 0.395188
0.061068 -0.029759 0.395250 255 35 39 0.061068 -0.029759 0.395250
0.061980 -0.029794 0.395688 255 30 55 0.061980 -0.029794 0.395688
0.062815 -0.029792 0.395625 255 30 55 0.062815 -0.029792 0.395625
0.063670 -0.029800 0.395688 255 15 61 0.063670 -0.029800 0.395688
0.064525 -0.029807 0.395750 255 8 54 0.064525 -0.029807 0.395750
0.065340 -0.029796 0.395563 255 7 53 0.065340 -0.029796 0.395563
0.066175 -0.029794 0.395500 255 12 57 0.066175 -0.029794 0.395500
0.066952 -0.029766 0.395094 255 6 80 0.066952 -0.029766 0.395094
0.067674 -0.029715 0.394376 252 0 67 0.067674 -0.029715 0.394376
0.068469 -0.029696 0.394095 255 0 69 0.068469 -0.029696 0.394095
0.069093 -0.029605 0.392845 255 6 60 0.069093 -0.029605 0.392845
0.069807 -0.029554 0.392127 255 8 63 0.069807 -0.029554 0.392127
0.070490 -0.029491 0.391252 255 3 59 0.070490 -0.029491 0.391252
0.071106 -0.029402 0.390034 255 0 64 0.071106 -0.029402 0.390034
0.071833 -0.029360 0.389441 255 0 61 0.071833 -0.029360 0.389441
0.072511 -0.029300 0.388597 255 0 64 0.072511 -0.029300 0.388597
0.073263 -0.029270 0.388160 255 0 63 0.073263 -0.029270 0.388160
0.073959 -0.029219 0.387442 255 0 57 0.073959 -0.029219 0.387442
0.074665 -0.029172 0.386786 255 0 56 0.074665 -0.029172 0.386786
0.075429 -0.029150 0.386442 254 0 38 0.075429 -0.029150 0.386442
0.076198 -0.029129 0.386130 255 0 37 0.076198 -0.029129 0.386130
0.076954 -0.029104 0.385755 255 0 40 0.076954 -0.029104 0.385755
0.077753 -0.029095 0.385599 255 0 44 0.077753 -0.029095 0.385599
0.078532 -0.029080 0.385349 255 0 34 0.078532 -0.029080 0.385349
0.079342 -0.029076 0.385255 251 0 29 0.079342 -0.029076 0.385255
0.080121 -0.029060 0.385005 255 0 38 0.080121 -0.029060 0.385005
0.080859 -0.029031 0.384568 255 0 47 0.080859 -0.029031 0.384568
0.081675 -0.029029 0.384506 255 0 45 0.081675 -0.029029 0.384506
0.082411 -0.029000 0.384068 253 0 40 0.082411 -0.029000 0.384068
0.083152 -0.028972 0.383662 254 0 40 0.083152 -0.028972 0.383662
0.083946 -0.028964 0.383506 254 0 40 0.083946 -0.028964 0.383506
0.084727 -0.028951 0.383287 255 0 41 0.084727 -0.028951 0.383287
0.085520 -0.028943 0.383131 255 0 31 0.085520 -0.028943 0.383131
0.086321 -0.028937 0.383006 255 0 32 0.086321 -0.028937 0.383006
0.087057 -0.028910 0.382600 255 0 9 0.087057 -0.028910 0.382600
0.087886 -0.028913 0.382600 253 0 4 0.087886 -0.028913 0.382600
0.088613 -0.028884 0.382163 252 0 3 0.088613 -0.028884 0.382163
0.089368 -0.028864 0.381851 253 0 21 0.089368 -0.028864 0.381851
0.090167 -0.028858 0.381726 255 0 36 0.090167 -0.028858 0.381726
0.090913 -0.028836 0.381382 255 0 46 0.090913 -0.028836 0.381382
0.089083 -0.019357 0.253942 87 63 84 0.089083 -0.019357 0.253942
0.089642 -0.019359 0.253911 115 77 112 0.089642 -0.019359 0.253911
0.048629 -0.030033 0.410962 255 59 102 0.048629 -0.030033 0.410962
0.049644 -0.030122 0.412149 255 51 76 0.049644 -0.030122 0.412149
0.050887 -0.030343 0.415147 255 48 72 0.050887 -0.030343 0.415147
0.051772 -0.030347 0.415179 255 48 60 0.051772 -0.030347 0.415179
0.052416 -0.030213 0.413304 255 53 46 0.052416 -0.030213 0.413304
0.052694 -0.029875 0.408650 255 76 45 0.052694 -0.029875 0.408650
0.052990 -0.029557 0.404277 255 73 48 0.052990 -0.029557 0.404277
0.053483 -0.029359 0.401529 255 77 53 0.053483 -0.029359 0.401529
0.054024 -0.029192 0.399217 255 76 75 0.054024 -0.029192 0.399217
0.054715 -0.029110 0.398062 255 76 86 0.054715 -0.029110 0.398062
0.055396 -0.029025 0.396875 255 76 86 0.055396 -0.029025 0.396875
0.056100 -0.028954 0.395875 255 54 62 0.056100 -0.028954 0.395875
0.056902 -0.028936 0.395594 255 46 49 0.056902 -0.028936 0.395594
0.057686 -0.028909 0.395188 255 37 45 0.057686 -0.028909 0.395188
0.058431 -0.028863 0.394532 255 40 48 0.058431 -0.028863 0.394532
0.059300 -0.028880 0.394719 255 35 43 0.059300 -0.028880 0.394719
0.060170 -0.028896 0.394907 255 21 38 0.060170 -0.028896 0.394907
0.061032 -0.028907 0.395032 255 25 42 0.061032 -0.028907 0.395032
0.061933 -0.028937 0.395407 255 27 50 0.061933 -0.028937 0.395407
0.062767 -0.028935 0.395344 255 23 46 0.062767 -0.028935 0.395344
0.063627 -0.028945 0.395438 255 26 52 0.063627 -0.028945 0.395438
0.064487 -0.028954 0.395532 255 28 57 0.064487 -0.028954 0.395532
0.065301 -0.028943 0.395344 255 23 51 0.065301 -0.028943 0.395344
0.066141 -0.028944 0.395313 255 21 48 0.066141 -0.028944 0.395313
0.066923 -0.028919 0.394938 255 10 52 0.066923 -0.028919 0.394938
0.067650 -0.028871 0.394251 255 11 53 0.067650 -0.028871 0.394251
0.068445 -0.028854 0.393970 255 10 46 0.068445 -0.028854 0.393970
0.069019 -0.028744 0.392439 255 1 54 0.069019 -0.028744 0.392439
0.069737 -0.028697 0.391752 255 0 59 0.069737 -0.028697 0.391752
0.070369 -0.028615 0.390596 255 0 61 0.070369 -0.028615 0.390596
0.070990 -0.028531 0.389409 255 0 59 0.070990 -0.028531 0.389409
0.071704 -0.028486 0.388754 255 0 59 0.071704 -0.028486 0.388754
0.072380 -0.028427 0.387910 255 0 63 0.072380 -0.028427 0.387910
0.073183 -0.028418 0.387754 255 2 61 0.073183 -0.028418 0.387754
0.073867 -0.028364 0.386973 255 0 43 0.073867 -0.028364 0.386973
0.074577 -0.028321 0.386348 255 0 48 0.074577 -0.028321 0.386348
0.075347 -0.028301 0.386036 255 0 47 0.075347 -0.028301 0.386036
0.076127 -0.028286 0.385786 255 0 52 0.076127 -0.028286 0.385786
0.076907 -0.028271 0.385536 255 0 50 0.076907 -0.028271 0.385536
0.077705 -0.028262 0.385380 255 0 45 0.077705 -0.028262 0.385380
0.078465 -0.028240 0.385037 255 0 51 0.078465 -0.028240 0.385037
0.079275 -0.028236 0.384943 253 0 42 0.079275 -0.028236 0.384943
0.080033 -0.028214 0.384599 255 0 44 0.080033 -0.028214 0.384599
0.080770 -0.028185 0.384162 255 0 34 0.080770 -0.028185 0.384162
0.081579 -0.028182 0.384068 255 0 34 0.081579 -0.028182 0.384068
0.082334 -0.028160 0.383725 249 0 28 0.082334 -0.028160 0.383725
0.083087 -0.028138 0.383381 255 0 49 0.083087 -0.028138 0.383381
0.083868 -0.028125 0.383162 255 0 48 0.083868 -0.028125 0.383162
0.084633 -0.028108 0.382881 255 0 39 0.084633 -0.028108 0.382881
0.085433 -0.028102 0.382756 255 0 27 0.085433 -0.028102 0.382756
0.086212 -0.028089 0.382538 255 0 27 0.086212 -0.028089 0.382538
0.086961 -0.028067 0.382194 255 0 23 0.086961 -0.028067 0.382194
0.087782 -0.028068 0.382163 255 0 28 0.087782 -0.028068 0.382163
0.088530 -0.028047 0.381819 254 0 24 0.088530 -0.028047 0.381819
0.089313 -0.028036 0.381632 245 0 28 0.089313 -0.028036 0.381632
0.090126 -0.028035 0.381569 252 0 44 0.090126 -0.028035 0.381569
0.090872 -0.028014 0.381226 255 0 49 0.090872 -0.028014 0.381226
0.048520 -0.029101 0.410056 255 56 89 0.048520 -0.029101 0.410056
0.049522 -0.029181 0.411149 255 51 78 0.049522 -0.029181 0.411149
0.050620 -0.029314 0.412992 255 48 61 0.050620 -0.029314 0.412992
0.051536 -0.029338 0.413304 255 41 54 0.051536 -0.029338 0.413304
0.052046 -0.029134 0.410400 255 52 51 0.052046 -0.029134 0.410400
0.052483 -0.028897 0.407026 255 72 66 0.052483 -0.028897 0.407026
0.052840 -0.028624 0.403153 255 81 71 0.052840 -0.028624 0.403153
0.053439 -0.028489 0.401216 255 83 73 0.053439 -0.028489 0.401216
0.054026 -0.028351 0.399249 255 72 88 0.054026 -0.028351 0.399249
0.054708 -0.028267 0.398030 255 65 87 0.054708 -0.028267 0.398030
0.055433 -0.028207 0.397156 255 64 85 0.055433 -0.028207 0.397156
0.056093 -0.028116 0.395844 255 50 70 0.056093 -0.028116 0.395844
0.056909 -0.028105 0.395657 255 36 62 0.056909 -0.028105 0.395657
0.057633 -0.028050 0.394844 255 35 66 0.057633 -0.028050 0.394844
0.058382 -0.028008 0.394220 255 34 65 0.058382 -0.028008 0.394220
0.059264 -0.028030 0.394501 255 35 62 0.059264 -0.028030 0.394501
0.060139 -0.028048 0.394719 255 32 49 0.060139 -0.028048 0.394719
0.061000 -0.028059 0.394844 255 32 49 0.061000 -0.028059 0.394844
0.061892 -0.028084 0.395157 255 37 54 0.061892 -0.028084 0.395157
0.062725 -0.028082 0.395094 255 28 45 0.062725 -0.028082 0.395094
0.063594 -0.028096 0.395250 255 18 35 0.063594 -0.028096 0.395250
0.064449 -0.028103 0.395313 255 17 40 0.064449 -0.028103 0.395313
0.065268 -0.028094 0.395157 255 18 41 0.065268 -0.028094 0.395157
0.066117 -0.028099 0.395188 255 10 42 0.066117 -0.028099 0.395188
0.066904 -0.028077 0.394844 255 5 48 0.066904 -0.028077 0.394844
0.067578 -0.028009 0.393845 255 8 50 0.067578 -0.028009 0.393845
0.068306 -0.027965 0.393189 255 4 52 0.068306 -0.027965 0.393189
0.068830 -0.027838 0.391377 255 4 49 0.068830 -0.027838 0.391377
0.069629 -0.027826 0.391159 255 0 53 0.069629 -0.027826 0.391159
0.070366 -0.027788 0.390596 255 0 54 0.070366 -0.027788 0.390596
0.071021 -0.027720 0.389597 255 0 71 0.071021 -0.027720 0.389597
0.071735 -0.027676 0.388941 255 0 63 0.071735 -0.027676 0.388941
0.072383 -0.027608 0.387941 255 0 68 0.072383 -0.027608 0.387941
0.073133 -0.027579 0.387504 255 7 62 0.073133 -0.027579 0.387504
0.073828 -0.027531 0.386786 255 7 44 0.073828 -0.027531 0.386786
0.074538 -0.027489 0.386161 255 0 36 0.074538 -0.027489 0.386161
0.075301 -0.027468 0.385817 249 0 34 0.075301 -0.027468 0.385817
0.076081 -0.027453 0.385568 255 0 59 0.076081 -0.027453 0.385568
0.076861 -0.027438 0.385318 255 0 57 0.076861 -0.027438 0.385318
0.077658 -0.027430 0.385161 255 0 54 0.077658 -0.027430 0.385161
0.078398 -0.027402 0.384724 255 0 48 0.078398 -0.027402 0.384724
0.079208 -0.027398 0.384631 254 0 46 0.079208 -0.027398 0.384631
0.079952 -0.027372 0.384224 255 0 33 0.079952 -0.027372 0.384224
0.080688 -0.027344 0.383787 255 0 22 0.080688 -0.027344 0.383787
0.081489 -0.027338 0.383662 251 0 17 0.081489 -0.027338 0.383662
0.082250 -0.027319 0.383350 255 0 28 0.082250 -0.027319 0.383350
0.083023 -0.027304 0.383100 253 0 43 0.083023 -0.027304 0.383100
0.083803 -0.027292 0.382881 255 0 48 0.083803 -0.027292 0.382881
0.084554 -0.027271 0.382538 255 0 47 0.084554 -0.027271 0.382538
0.085353 -0.027265 0.382413 255 0 35 0.085353 -0.027265 0.382413
0.086117 -0.027248 0.382132 255 0 31 0.086117 -0.027248 0.382132
0.086873 -0.027229 0.381819 250 0 28 0.086873 -0.027229 0.381819
0.087692 -0.027230 0.381788 255 0 29 0.087692 -0.027230 0.381788
0.088461 -0.027216 0.381538 255 0 34 0.088461 -0.027216 0.381538
0.089266 -0.027212 0.381445 255 0 32 0.089266 -0.027212 0.381445
0.090078 -0.027211 0.381382 247 0 31 0.090078 -0.027211 0.381382
0.090831 -0.027192 0.381070 253 0 50 0.090831 -0.027192 0.381070
0.047423 -0.028101 0.408119 255 54 82 0.047423 -0.028101 0.408119
0.048314 -0.028118 0.408338 255 53 81 0.048314 -0.028118 0.408338
0.049365 -0.028226 0.409869 255 53 68 0.049365 -0.028226 0.409869
0.050362 -0.028299 0.410899 255 62 59 0.050362 -0.028299 0.410899
0.051246 -0.028307 0.410993 255 57 54 0.051246 -0.028307 0.410993
0.051675 -0.028068 0.407495 255 67 70 0.051675 -0.028068 0.407495
0.052247 -0.027913 0.405215 255 80 88 0.052247 -0.027913 0.405215
0.052678 -0.027689 0.401935 255 83 89 0.052678 -0.027689 0.401935
0.053383 -0.027614 0.400810 255 84 90 0.053383 -0.027614 0.400810
0.053986 -0.027489 0.398967 255 75 69 0.053986 -0.027489 0.398967
0.054659 -0.027403 0.397687 255 66 57 0.054659 -0.027403 0.397687
0.055379 -0.027343 0.396781 255 61 51 0.055379 -0.027343 0.396781
0.056029 -0.027250 0.395407 255 47 52 0.056029 -0.027250 0.395407
0.056853 -0.027244 0.395282 255 41 45 0.056853 -0.027244 0.395282
0.057576 -0.027190 0.394470 255 35 44 0.057576 -0.027190 0.394470
0.058319 -0.027147 0.393814 255 38 46 0.058319 -0.027147 0.393814
0.059211 -0.027173 0.394157 255 36 40 0.059211 -0.027173 0.394157
0.060084 -0.027190 0.394376 255 38 38 0.060084 -0.027190 0.394376
0.060979 -0.027216 0.394719 255 42 41 0.060979 -0.027216 0.394719
0.061875 -0.027243 0.395063 255 40 49 0.061875 -0.027243 0.395063
0.062753 -0.027260 0.395282 255 41 50 0.062753 -0.027260 0.395282
0.063632 -0.027277 0.395500 255 32 45 0.063632 -0.027277 0.395500
0.064507 -0.027293 0.395688 255 19 44 0.064507 -0.027293 0.395688
0.065358 -0.027297 0.395719 255 21 45 0.065358 -0.027297 0.395719
0.066246 -0.027317 0.395969 255 18 49 0.066246 -0.027317 0.395969
0.066997 -0.027281 0.395407 255 10 53 0.066997 -0.027281 0.395407
0.067564 -0.027171 0.393782 255 5 49 0.067564 -0.027171 0.393782
0.068011 -0.027016 0.391502 255 8 46 0.068011 -0.027016 0.391502
0.068580 -0.026913 0.389972 255 10 30 0.068580 -0.026913 0.389972
0.069465 -0.026935 0.390253 255 8 36 0.069465 -0.026935 0.390253
0.070386 -0.026970 0.390721 255 8 36 0.070386 -0.026970 0.390721
0.071069 -0.026915 0.389878 255 1 52 0.071069 -0.026915 0.389878
0.071790 -0.026874 0.389253 254 0 55 0.071790 -0.026874 0.389253
0.072375 -0.026784 0.387910 255 0 62 0.072375 -0.026784 0.387910
0.073083 -0.026742 0.387254 255 4 61 0.073083 -0.026742 0.387254
0.073784 -0.026697 0.386567 255 8 39 0.073784 -0.026697 0.386567
0.074493 -0.026656 0.385942 253 0 27 0.074493 -0.026656 0.385942
0.075256 -0.026635 0.385599 251 0 8 0.075256 -0.026635 0.385599
0.076029 -0.026619 0.385318 255 0 41 0.076029 -0.026619 0.385318
0.076808 -0.026604 0.385068 255 0 39 0.076808 -0.026604 0.385068
0.077605 -0.026596 0.384912 255 0 53 0.077605 -0.026596 0.384912
0.078325 -0.026563 0.384381 255 0 35 0.078325 -0.026563 0.384381
0.079134 -0.026559 0.384287 255 0 30 0.079134 -0.026559 0.384287
0.079864 -0.026529 0.383818 254 0 11 0.079864 -0.026529 0.383818
0.080600 -0.026502 0.383381 255 0 21 0.080600 -0.026502 0.383381
0.081387 -0.026492 0.383194 253 0 17 0.081387 -0.026492 0.383194
0.082166 -0.026480 0.382975 255 0 33 0.082166 -0.026480 0.382975
0.082953 -0.026470 0.382788 255 0 47 0.082953 -0.026470 0.382788
0.083738 -0.026460 0.382600 255 0 52 0.083738 -0.026460 0.382600
0.084468 -0.026433 0.382163 250 0 35 0.084468 -0.026433 0.382163
0.085273 -0.026430 0.382069 255 0 25 0.085273 -0.026430 0.382069
0.086015 -0.026407 0.381694 255 0 22 0.086015 -0.026407 0.381694
0.086784 -0.026393 0.381445 255 0 17 0.086784 -0.026393 0.381445
0.087596 -0.026391 0.381382 251 0 1 0.087596 -0.026391 0.381382
0.088378 -0.026382 0.381195 255 0 24 0.088378 -0.026382 0.381195
0.089204 -0.026385 0.381195 255 0 23 0.089204 -0.026385 0.381195
0.090024 -0.026386 0.381163 255 0 43 0.090024 -0.026386 0.381163
0.090791 -0.026372 0.380914 255 0 47 0.090791 -0.026372 0.380914
0.091648 -0.026384 0.381038 255 0 49 0.091648 -0.026384 0.381038
0.047279 -0.027159 0.406901 255 56 76 0.047279 -0.027159 0.406901
0.048213 -0.027201 0.407495 255 50 70 0.048213 -0.027201 0.407495
0.049303 -0.027328 0.409369 255 57 65 0.049303 -0.027328 0.409369
0.050184 -0.027336 0.409463 255 63 81 0.050184 -0.027336 0.409463
0.051022 -0.027321 0.409213 255 61 79 0.051022 -0.027321 0.409213
0.051483 -0.027108 0.405995 255 78 92 0.051483 -0.027108 0.405995
0.052136 -0.027002 0.404371 255 81 87 0.052136 -0.027002 0.404371
0.052554 -0.026779 0.400998 255 76 84 0.052554 -0.026779 0.400998
0.053194 -0.026674 0.399405 255 76 84 0.053194 -0.026674 0.399405
0.053714 -0.026514 0.396968 255 43 73 0.053714 -0.026514 0.396968
0.054348 -0.026413 0.395438 255 37 60 0.054348 -0.026413 0.395438
0.055019 -0.026334 0.394220 255 43 48 0.055019 -0.026334 0.394220
0.055721 -0.026272 0.393251 255 41 46 0.055721 -0.026272 0.393251
0.056585 -0.026286 0.393439 255 43 48 0.056585 -0.026286 0.393439
0.057323 -0.026242 0.392752 255 37 35 0.057323 -0.026242 0.392752
0.058142 -0.026236 0.392627 255 35 33 0.058142 -0.026236 0.392627
0.059035 -0.026263 0.393002 255 39 38 0.059035 -0.026263 0.393002
0.059954 -0.026301 0.393533 255 37 48 0.059954 -0.026301 0.393533
0.060860 -0.026332 0.393970 255 37 48 0.060860 -0.026332 0.393970
0.061809 -0.026381 0.394657 255 28 57 0.061809 -0.026381 0.394657
0.062711 -0.026408 0.395032 255 26 54 0.062711 -0.026408 0.395032
0.063599 -0.026429 0.395313 255 20 55 0.063599 -0.026429 0.395313
0.064484 -0.026448 0.395563 255 11 50 0.064484 -0.026448 0.395563
0.065340 -0.026455 0.395625 255 14 54 0.065340 -0.026455 0.395625
0.066233 -0.026476 0.395906 255 18 50 0.066233 -0.026476 0.395906
0.066984 -0.026441 0.395344 255 18 51 0.066984 -0.026441 0.395344
0.067551 -0.026334 0.393720 255 17 50 0.067551 -0.026334 0.393720
0.067970 -0.026174 0.391284 254 3 46 0.067970 -0.026174 0.391284
0.068566 -0.026084 0.389909 255 2 56 0.068566 -0.026084 0.389909
0.069457 -0.026108 0.390222 255 0 59 0.069457 -0.026108 0.390222
0.070434 -0.026162 0.391002 255 0 61 0.070434 -0.026162 0.391002
0.071101 -0.026102 0.390065 255 0 53 0.071101 -0.026102 0.390065
0.071834 -0.026067 0.389503 255 0 59 0.071834 -0.026067 0.389503
0.072372 -0.025963 0.387910 255 0 54 0.072372 -0.025963 0.387910
0.073034 -0.025905 0.387004 255 0 58 0.073034 -0.025905 0.387004
0.073727 -0.025859 0.386286 255 0 55 0.073727 -0.025859 0.386286
0.074442 -0.025822 0.385693 255 0 61 0.074442 -0.025822 0.385693
0.075204 -0.025802 0.385349 253 0 45 0.075204 -0.025802 0.385349
0.075952 -0.025777 0.384943 255 0 36 0.075952 -0.025777 0.384943
0.076737 -0.025765 0.384724 255 0 36 0.076737 -0.025765 0.384724
0.077514 -0.025751 0.384474 253 0 24 0.077514 -0.025751 0.384474
0.078240 -0.025721 0.383975 255 0 32 0.078240 -0.025721 0.383975
0.079041 -0.025715 0.383850 255 0 29 0.079041 -0.025715 0.383850
0.079777 -0.025689 0.383412 255 0 36 0.079777 -0.025689 0.383412
0.080531 -0.025668 0.383069 255 0 47 0.080531 -0.025668 0.383069
0.081311 -0.025657 0.382850 248 0 34 0.081311 -0.025657 0.382850
0.082090 -0.025645 0.382631 255 0 40 0.082090 -0.025645 0.382631
0.082882 -0.025637 0.382475 255 0 46 0.082882 -0.025637 0.382475
0.083667 -0.025627 0.382288 255 0 46 0.083667 -0.025627 0.382288
0.084403 -0.025603 0.381882 250 0 42 0.084403 -0.025603 0.381882
0.085215 -0.025602 0.381819 254 0 33 0.085215 -0.025602 0.381819
0.085956 -0.025580 0.381445 255 0 20 0.085956 -0.025580 0.381445
0.086724 -0.025566 0.381195 255 0 20 0.086724 -0.025566 0.381195
0.087542 -0.025567 0.381163 255 0 17 0.087542 -0.025567 0.381163
0.088317 -0.025555 0.380945 254 0 28 0.088317 -0.025555 0.380945
0.089150 -0.025560 0.380976 253 0 27 0.089150 -0.025560 0.380976
0.089976 -0.025564 0.380976 255 0 43 0.089976 -0.025564 0.380976
0.090750 -0.025552 0.380757 251 0 30 0.090750 -0.025552 0.380757
0.091607 -0.025564 0.380882 255 0 40 0.091607 -0.025564 0.380882
0.047237 -0.026279 0.406558 255 52 74 0.047237 -0.026279 0.406558
0.048152 -0.026309 0.406995 255 59 76 0.048152 -0.026309 0.406995
0.049237 -0.026430 0.408838 255 60 77 0.049237 -0.026430 0.408838
0.050124 -0.026442 0.408994 255 64 85 0.050124 -0.026442 0.408994
0.050934 -0.026414 0.408525 255 65 87 0.050934 -0.026414 0.408525
0.051442 -0.026232 0.405683 255 74 88 0.051442 -0.026232 0.405683
0.052042 -0.026102 0.403653 255 75 74 0.052042 -0.026102 0.403653
0.052478 -0.025896 0.400436 255 78 65 0.052478 -0.025896 0.400436
0.053038 -0.025757 0.398249 255 76 63 0.053038 -0.025757 0.398249
0.053538 -0.025593 0.395688 255 65 61 0.053538 -0.025593 0.395688
0.054131 -0.025478 0.393876 255 50 53 0.054131 -0.025478 0.393876
0.054773 -0.025389 0.392471 255 38 40 0.054773 -0.025389 0.392471
0.055485 -0.025334 0.391596 255 44 46 0.055485 -0.025334 0.391596
0.056323 -0.025338 0.391627 255 40 49 0.056323 -0.025338 0.391627
0.057084 -0.025308 0.391127 255 33 43 0.057084 -0.025308 0.391127
0.057959 -0.025328 0.391409 255 35 45 0.057959 -0.025328 0.391409
0.058845 -0.025352 0.391752 255 38 44 0.058845 -0.025352 0.391752
0.059809 -0.025409 0.392595 255 33 56 0.059809 -0.025409 0.392595
0.060728 -0.025446 0.393126 255 32 55 0.060728 -0.025446 0.393126
0.061723 -0.025512 0.394126 255 27 63 0.061723 -0.025512 0.394126
0.062664 -0.025555 0.394751 255 25 60 0.062664 -0.025555 0.394751
0.063562 -0.025579 0.395094 255 16 67 0.063562 -0.025579 0.395094
0.064457 -0.025602 0.395407 255 20 71 0.064457 -0.025602 0.395407
0.065312 -0.025608 0.395469 255 17 68 0.065312 -0.025608 0.395469
0.066215 -0.025633 0.395813 255 22 67 0.066215 -0.025633 0.395813
0.066966 -0.025599 0.395250 255 17 57 0.066966 -0.025599 0.395250
0.067581 -0.025514 0.393907 255 17 57 0.067581 -0.025514 0.393907
0.068093 -0.025393 0.392002 255 2 44 0.068093 -0.025393 0.392002
0.068701 -0.025310 0.390690 255 1 45 0.068701 -0.025310 0.390690
0.069499 -0.025298 0.390471 253 0 37 0.069499 -0.025298 0.390471
0.070347 -0.025305 0.390534 255 0 44 0.070347 -0.025305 0.390534
0.070968 -0.025230 0.389347 255 0 60 0.070968 -0.025230 0.389347
0.071687 -0.025192 0.388722 255 0 75 0.071687 -0.025192 0.388722
0.072276 -0.025110 0.387410 255 0 79 0.072276 -0.025110 0.387410
0.072984 -0.025070 0.386755 255 0 80 0.072984 -0.025070 0.386755
0.073689 -0.025029 0.386099 255 0 62 0.073689 -0.025029 0.386099
0.074404 -0.024993 0.385505 255 0 70 0.074404 -0.024993 0.385505
0.075165 -0.024974 0.385161 253 0 33 0.075165 -0.024974 0.385161
0.075888 -0.024942 0.384631 255 0 20 0.075888 -0.024942 0.384631
0.076678 -0.024932 0.384443 255 0 20 0.076678 -0.024932 0.384443
0.077436 -0.024913 0.384100 255 0 32 0.077436 -0.024913 0.384100
0.078154 -0.024881 0.383568 255 0 37 0.078154 -0.024881 0.383568
0.078948 -0.024873 0.383412 255 0 35 0.078948 -0.024873 0.383412
0.079690 -0.024850 0.383006 253 0 36 0.079690 -0.024850 0.383006
0.080469 -0.024838 0.382788 255 0 40 0.080469 -0.024838 0.382788
0.081248 -0.024827 0.382569 254 0 35 0.081248 -0.024827 0.382569
0.082027 -0.024815 0.382350 252 0 31 0.082027 -0.024815 0.382350
0.082818 -0.024808 0.382194 255 0 40 0.082818 -0.024808 0.382194
0.083602 -0.024798 0.382007 255 0 45 0.083602 -0.024798 0.382007
0.084345 -0.024777 0.381632 242 0 28 0.084345 -0.024777 0.381632
0.085156 -0.024775 0.381569 253 0 40 0.085156 -0.024775 0.381569
0.085904 -0.024756 0.381226 255 0 40 0.085904 -0.024756 0.381226
0.086672 -0.024743 0.380976 255 0 43 0.086672 -0.024743 0.380976
0.087489 -0.024743 0.380945 255 0 36 0.087489 -0.024743 0.380945
0.088271 -0.024734 0.380757 252 0 21 0.088271 -0.024734 0.380757
0.089103 -0.024739 0.380789 255 0 29 0.089103 -0.024739 0.380789
0.089929 -0.024742 0.380789 251 0 37 0.089929 -0.024742 0.380789
0.090710 -0.024733 0.380601 254 0 41 0.090710 -0.024733 0.380601
0.091566 -0.024744 0.380726 253 0 40 0.091566 -0.024744 0.380726
0.047199 -0.025402 0.406245 255 48 75 0.047199 -0.025402 0.406245
0.048117 -0.025433 0.406714 255 52 74 0.048117 -0.025433 0.406714
0.049205 -0.025552 0.408588 255 55 78 0.049205 -0.025552 0.408588
0.050096 -0.025566 0.408775 255 61 84 0.050096 -0.025566 0.408775
